ncols         96
nrows         99
xllcorner     229410.03812408
yllcorner     6444772.038147
cellsize      4
NODATA_value  -9999
-9999 -9999 -9999 -9999 -9999 -9999 -9999 -9999 -9999 -9999 -9999 -9999 -9999 -9999 -9999 -9999 -9999 -9999 -9999 -9999 -9999 -9999 -9999 -9999 -9999 -9999 -9999 -9999 -9999 -9999 -9999 -9999 -9999 -9999 -9999 -9999 -9999 -9999 -9999 408.5255 407.896 408.2601 -9999 -9999 -9999 -9999 -9999 -9999 -9999 -9999 -9999 -9999 -9999 -9999 -9999 -9999 -9999 -9999 -9999 -9999 -9999 -9999 -9999 -9999 -9999 -9999 -9999 -9999 -9999 -9999 -9999 -9999 -9999 -9999 -9999 -9999 -9999 -9999 -9999 -9999 -9999 -9999 -9999 -9999 -9999 -9999 -9999 -9999 -9999 -9999 -9999 -9999 -9999 -9999 -9999 -9999 
-9999 -9999 -9999 -9999 -9999 -9999 -9999 -9999 -9999 -9999 -9999 -9999 -9999 -9999 -9999 -9999 -9999 -9999 -9999 -9999 -9999 -9999 -9999 -9999 -9999 -9999 -9999 -9999 408.2401 408.4186 408.4806 408.4088 -9999 -9999 -9999 -9999 -9999 408.9973 408.6756 407.9325 408.1382 408.9063 409.6667 -9999 -9999 -9999 -9999 -9999 -9999 -9999 -9999 -9999 -9999 -9999 -9999 -9999 -9999 -9999 -9999 -9999 -9999 -9999 -9999 -9999 -9999 -9999 -9999 -9999 -9999 -9999 -9999 -9999 -9999 -9999 -9999 -9999 -9999 -9999 -9999 -9999 -9999 -9999 -9999 -9999 -9999 -9999 -9999 -9999 -9999 -9999 -9999 -9999 -9999 -9999 -9999 -9999 
-9999 -9999 -9999 -9999 -9999 -9999 -9999 -9999 -9999 -9999 -9999 -9999 -9999 -9999 -9999 -9999 -9999 -9999 -9999 -9999 -9999 -9999 -9999 -9999 -9999 -9999 -9999 408.6013 408.3538 408.1059 -9999 -9999 408.0923 408.2268 408.24 408.3699 408.5079 408.4262 408.0266 408.2466 408.9846 409.6738 410.0874 410.5979 -9999 -9999 -9999 -9999 -9999 -9999 -9999 -9999 -9999 -9999 -9999 -9999 -9999 -9999 -9999 -9999 -9999 -9999 -9999 -9999 -9999 -9999 -9999 -9999 -9999 -9999 -9999 -9999 -9999 -9999 -9999 -9999 -9999 -9999 -9999 -9999 -9999 -9999 -9999 -9999 -9999 -9999 -9999 -9999 -9999 -9999 -9999 -9999 -9999 -9999 -9999 -9999 
-9999 -9999 -9999 -9999 -9999 -9999 -9999 -9999 -9999 -9999 -9999 -9999 -9999 -9999 -9999 -9999 -9999 -9999 -9999 -9999 -9999 -9999 -9999 -9999 -9999 -9999 409.1732 409.0373 408.9248 408.7436 408.408 408.1047 408.1094 -9999 -9999 -9999 -9999 -9999 408.1801 408.853 409.4265 409.9705 410.5394 411.0902 411.597 -9999 -9999 -9999 -9999 -9999 -9999 -9999 -9999 -9999 -9999 -9999 -9999 -9999 -9999 -9999 -9999 -9999 -9999 -9999 -9999 -9999 -9999 -9999 -9999 -9999 -9999 -9999 -9999 -9999 -9999 -9999 -9999 -9999 -9999 -9999 -9999 -9999 -9999 -9999 -9999 -9999 -9999 -9999 -9999 -9999 -9999 -9999 -9999 -9999 -9999 -9999 
-9999 -9999 -9999 -9999 -9999 -9999 -9999 -9999 -9999 -9999 -9999 -9999 -9999 -9999 -9999 -9999 -9999 -9999 -9999 -9999 -9999 -9999 -9999 -9999 -9999 -9999 409.4048 409.3326 409.2339 409.1608 408.9215 408.6293 408.7944 408.4182 -9999 -9999 -9999 408.1928 408.8785 409.2923 409.5883 410.119 410.772 411.3972 411.9687 412.3107 -9999 -9999 -9999 -9999 -9999 -9999 -9999 -9999 -9999 -9999 -9999 -9999 -9999 -9999 -9999 -9999 -9999 -9999 -9999 -9999 -9999 -9999 -9999 -9999 -9999 -9999 -9999 -9999 -9999 -9999 -9999 -9999 -9999 -9999 -9999 -9999 -9999 -9999 -9999 -9999 -9999 -9999 -9999 -9999 -9999 -9999 -9999 -9999 -9999 -9999 
-9999 -9999 -9999 -9999 -9999 -9999 -9999 -9999 -9999 -9999 -9999 -9999 -9999 -9999 -9999 -9999 -9999 -9999 -9999 -9999 -9999 -9999 -9999 -9999 -9999 -9999 409.7295 409.5762 409.5067 409.4646 409.3673 409.2195 409.108 408.9552 408.4693 -9999 408.1013 408.9353 409.3679 409.5966 409.798 410.366 410.9463 411.5531 412.1108 412.5457 -9999 -9999 -9999 -9999 -9999 -9999 -9999 -9999 -9999 -9999 -9999 -9999 -9999 -9999 -9999 -9999 -9999 -9999 -9999 -9999 -9999 -9999 -9999 -9999 -9999 -9999 -9999 -9999 -9999 -9999 -9999 -9999 -9999 -9999 -9999 -9999 -9999 -9999 -9999 -9999 -9999 -9999 -9999 -9999 -9999 -9999 -9999 -9999 -9999 -9999 
-9999 -9999 -9999 -9999 -9999 -9999 -9999 -9999 -9999 -9999 -9999 -9999 -9999 -9999 -9999 -9999 -9999 -9999 -9999 -9999 -9999 -9999 -9999 -9999 -9999 410.2231 410.0754 409.9398 409.7808 409.7073 409.6972 409.6482 409.5287 409.498 409.3433 408.2664 408.91 409.3832 409.5625 409.7466 409.9823 410.5669 411.1656 411.7041 412.2006 412.7046 413.2346 -9999 -9999 -9999 -9999 -9999 -9999 -9999 -9999 -9999 -9999 -9999 -9999 -9999 -9999 -9999 -9999 -9999 -9999 -9999 -9999 -9999 -9999 -9999 -9999 -9999 -9999 -9999 -9999 -9999 -9999 -9999 -9999 -9999 -9999 -9999 -9999 -9999 -9999 -9999 -9999 -9999 -9999 -9999 -9999 -9999 -9999 -9999 -9999 -9999 
-9999 -9999 -9999 -9999 -9999 -9999 -9999 -9999 -9999 -9999 -9999 -9999 -9999 -9999 -9999 -9999 -9999 -9999 -9999 -9999 -9999 -9999 -9999 -9999 410.7699 410.5641 410.385 410.2379 410.0922 409.9767 409.9844 409.939 409.8929 409.7628 409.5143 408.5087 409.4238 409.8237 409.9389 410.1509 410.2378 410.7016 411.3198 411.8887 412.4534 412.9588 413.5646 414.0435 -9999 -9999 -9999 -9999 -9999 -9999 -9999 -9999 -9999 -9999 -9999 -9999 -9999 -9999 -9999 -9999 -9999 -9999 -9999 -9999 -9999 -9999 -9999 -9999 -9999 -9999 -9999 -9999 -9999 -9999 -9999 -9999 -9999 -9999 -9999 -9999 -9999 -9999 -9999 -9999 -9999 -9999 -9999 -9999 -9999 -9999 -9999 -9999 
-9999 -9999 -9999 -9999 -9999 -9999 -9999 -9999 -9999 -9999 -9999 -9999 -9999 -9999 -9999 -9999 -9999 -9999 -9999 -9999 -9999 -9999 -9999 -9999 411.0999 410.9763 410.7729 410.5596 410.3943 410.3229 410.2928 410.1693 410.1547 410.1434 409.6324 408.9077 409.9805 410.3198 410.4583 410.6615 410.7497 410.6829 411.3056 412.0748 412.7036 413.2478 413.8927 414.4169 414.7747 -9999 -9999 -9999 -9999 -9999 -9999 -9999 -9999 -9999 -9999 -9999 -9999 -9999 -9999 -9999 -9999 -9999 -9999 -9999 -9999 -9999 -9999 -9999 -9999 -9999 -9999 -9999 -9999 -9999 -9999 -9999 -9999 -9999 -9999 -9999 -9999 -9999 -9999 -9999 -9999 -9999 -9999 -9999 -9999 -9999 -9999 -9999 
-9999 -9999 -9999 -9999 -9999 -9999 -9999 -9999 -9999 -9999 -9999 -9999 -9999 -9999 -9999 -9999 -9999 -9999 -9999 -9999 -9999 -9999 -9999 -9999 411.4088 411.3008 411.1928 410.9979 410.7405 410.5984 410.5723 410.5594 410.4592 410.3784 409.3169 409.7352 410.3841 410.7879 410.9995 411.1699 411.3761 411.1764 411.2693 412.1857 413.0042 413.6631 414.2589 414.8864 415.225 415.5129 -9999 -9999 -9999 -9999 -9999 -9999 -9999 -9999 -9999 -9999 -9999 -9999 -9999 -9999 -9999 -9999 -9999 -9999 -9999 -9999 -9999 -9999 -9999 -9999 -9999 -9999 -9999 -9999 -9999 -9999 -9999 -9999 -9999 -9999 -9999 -9999 -9999 -9999 -9999 -9999 -9999 -9999 -9999 -9999 -9999 -9999 
-9999 -9999 -9999 -9999 -9999 -9999 -9999 -9999 -9999 -9999 -9999 -9999 -9999 -9999 -9999 -9999 -9999 -9999 -9999 -9999 -9999 -9999 -9999 -9999 411.7572 411.7407 411.5968 411.4789 411.2195 410.9338 410.8227 410.818 410.8258 410.2601 409.7287 410.6184 410.9399 411.1905 411.3973 411.8155 411.9741 411.8767 411.521 412.4172 413.3271 414.0211 414.6116 415.1285 415.6006 415.9084 416.1535 -9999 -9999 -9999 -9999 -9999 -9999 -9999 -9999 -9999 -9999 -9999 -9999 -9999 -9999 -9999 -9999 -9999 -9999 -9999 -9999 -9999 -9999 -9999 -9999 -9999 -9999 -9999 -9999 -9999 -9999 -9999 -9999 -9999 -9999 -9999 -9999 -9999 -9999 -9999 -9999 -9999 -9999 -9999 -9999 -9999 
-9999 -9999 -9999 -9999 -9999 -9999 -9999 -9999 -9999 -9999 -9999 -9999 -9999 -9999 -9999 -9999 -9999 -9999 -9999 -9999 -9999 -9999 -9999 -9999 412.1898 412.067 411.9471 411.7936 411.5557 411.318 411.1535 411.066 411.0818 410.3145 410.2104 411.0788 411.3468 411.6709 411.9458 412.2618 412.4585 412.4692 412.146 412.5753 413.5378 414.1776 414.8399 415.4265 415.8647 416.2908 416.6232 -9999 -9999 -9999 -9999 -9999 -9999 -9999 -9999 -9999 -9999 -9999 -9999 -9999 -9999 -9999 -9999 -9999 -9999 -9999 -9999 -9999 -9999 -9999 -9999 -9999 -9999 -9999 -9999 -9999 -9999 -9999 -9999 -9999 -9999 -9999 -9999 -9999 -9999 -9999 -9999 -9999 -9999 -9999 -9999 -9999 
-9999 -9999 -9999 -9999 -9999 -9999 -9999 -9999 -9999 -9999 -9999 -9999 -9999 -9999 -9999 -9999 -9999 -9999 -9999 -9999 -9999 -9999 -9999 412.8022 412.6082 412.4296 412.2707 412.1212 411.9085 411.6701 411.4928 411.3477 411.4236 410.5825 410.4133 411.4121 411.7568 412.1093 412.3885 412.6932 412.9367 413.014 412.9962 412.8654 413.2529 414.2542 415.0937 415.7344 416.1978 416.6849 417.0703 417.4503 -9999 -9999 -9999 -9999 -9999 -9999 -9999 -9999 -9999 -9999 -9999 -9999 -9999 -9999 -9999 -9999 -9999 -9999 -9999 -9999 -9999 -9999 -9999 -9999 -9999 -9999 -9999 -9999 -9999 -9999 -9999 -9999 -9999 -9999 -9999 -9999 -9999 -9999 -9999 -9999 -9999 -9999 -9999 -9999 
-9999 -9999 -9999 -9999 -9999 -9999 -9999 -9999 -9999 -9999 -9999 -9999 -9999 -9999 -9999 -9999 -9999 -9999 -9999 -9999 -9999 -9999 -9999 413.2668 413.0194 412.8213 412.6327 412.4806 412.2619 412.071 411.8722 411.7324 411.6949 410.7979 410.6966 411.5849 412.1511 412.4872 412.7482 413.1033 413.3988 413.6615 413.7804 413.9415 413.5407 414.4373 415.3598 416.067 416.6059 417.1649 417.5902 417.8633 418.1553 418.688 -9999 -9999 -9999 -9999 -9999 -9999 -9999 -9999 -9999 -9999 -9999 -9999 -9999 -9999 -9999 -9999 -9999 -9999 -9999 -9999 -9999 -9999 -9999 -9999 -9999 -9999 -9999 -9999 -9999 -9999 -9999 -9999 -9999 -9999 -9999 -9999 -9999 -9999 -9999 -9999 -9999 -9999 
-9999 -9999 -9999 -9999 -9999 -9999 -9999 -9999 -9999 -9999 -9999 -9999 -9999 -9999 -9999 -9999 -9999 -9999 -9999 -9999 -9999 -9999 -9999 413.6683 413.3969 413.2159 413.0644 412.8931 412.6723 412.4035 412.2138 412.0815 411.9088 410.9924 411.4598 411.9441 412.2516 412.7226 413.15 413.5074 413.8882 414.2804 414.5628 414.6475 414.6535 414.7748 415.6992 416.4305 417.0637 417.6263 417.9232 418.2103 418.4994 419.0046 419.3676 -9999 -9999 -9999 -9999 -9999 -9999 -9999 -9999 -9999 -9999 -9999 -9999 -9999 -9999 -9999 -9999 -9999 -9999 -9999 -9999 -9999 -9999 -9999 -9999 -9999 -9999 -9999 -9999 -9999 -9999 -9999 -9999 -9999 -9999 -9999 -9999 -9999 -9999 -9999 -9999 -9999 
-9999 -9999 -9999 -9999 -9999 -9999 -9999 -9999 -9999 -9999 -9999 -9999 -9999 -9999 -9999 -9999 -9999 -9999 -9999 -9999 -9999 -9999 414.1944 414.0762 413.8031 413.6092 413.4628 413.2989 413.0161 412.6997 412.4677 412.3173 412.1738 411.4962 411.705 412.2237 412.6642 412.8857 413.3287 413.8935 414.3495 414.7951 415.1232 415.4152 415.5504 415.4563 416.1688 416.9134 417.6397 418.0277 418.2813 418.5464 418.8422 419.366 419.7021 420.0433 -9999 -9999 -9999 -9999 -9999 -9999 -9999 -9999 -9999 -9999 -9999 -9999 -9999 -9999 -9999 -9999 -9999 -9999 -9999 -9999 -9999 -9999 -9999 -9999 -9999 -9999 -9999 -9999 -9999 -9999 -9999 -9999 -9999 -9999 -9999 -9999 -9999 -9999 -9999 -9999 
-9999 -9999 -9999 -9999 -9999 -9999 -9999 -9999 -9999 -9999 -9999 -9999 -9999 -9999 -9999 -9999 -9999 -9999 -9999 -9999 -9999 -9999 414.891 414.5013 414.1848 413.9919 413.8401 413.6637 413.4129 413.0858 412.8682 412.6765 412.5043 411.8571 411.8349 412.558 413.0201 413.4887 413.8839 414.1645 414.6668 415.3276 415.6613 415.9994 416.2962 416.3961 416.6693 417.3528 417.9946 418.4738 418.7089 419.0071 419.2908 419.7566 420.1279 420.4715 420.7906 -9999 -9999 -9999 -9999 -9999 -9999 -9999 -9999 -9999 -9999 -9999 -9999 -9999 -9999 -9999 -9999 -9999 -9999 -9999 -9999 -9999 -9999 -9999 -9999 -9999 -9999 -9999 -9999 -9999 -9999 -9999 -9999 -9999 -9999 -9999 -9999 -9999 -9999 -9999 
-9999 -9999 -9999 -9999 -9999 -9999 -9999 -9999 -9999 -9999 -9999 -9999 -9999 -9999 -9999 -9999 -9999 -9999 -9999 -9999 -9999 416.386 415.5208 414.9569 414.6709 414.4317 414.306 414.099 413.8632 413.5463 413.3493 413.1734 412.957 412.2398 412.0607 412.9269 413.3575 414.0317 414.3601 414.7095 415.0055 415.5096 416.1288 416.5193 416.8691 417.2126 417.4865 417.8944 418.4522 418.9085 419.2415 419.5684 419.7856 420.2722 420.5937 420.9266 421.2441 421.6503 -9999 -9999 -9999 -9999 -9999 -9999 -9999 -9999 -9999 -9999 -9999 -9999 -9999 -9999 -9999 -9999 -9999 -9999 -9999 -9999 -9999 -9999 -9999 -9999 -9999 -9999 -9999 -9999 -9999 -9999 -9999 -9999 -9999 -9999 -9999 -9999 -9999 -9999 
-9999 -9999 -9999 -9999 -9999 -9999 -9999 -9999 -9999 -9999 -9999 -9999 -9999 -9999 -9999 -9999 -9999 -9999 -9999 -9999 417.7097 416.9787 416.1328 415.5311 415.1645 414.9416 414.7964 414.534 414.2426 413.9413 413.6832 413.632 413.4312 412.5445 412.2857 413.3065 413.6118 414.3 414.8249 415.2224 415.6181 416.1014 416.4666 416.9738 417.4078 417.9443 418.2928 418.5809 419.0491 419.4805 419.8917 420.1575 420.3767 420.8361 421.124 421.4904 421.7567 422.111 -9999 -9999 -9999 -9999 -9999 -9999 -9999 -9999 -9999 -9999 -9999 -9999 -9999 -9999 -9999 -9999 -9999 -9999 -9999 -9999 -9999 -9999 -9999 -9999 -9999 -9999 -9999 -9999 -9999 -9999 -9999 -9999 -9999 -9999 -9999 -9999 -9999 -9999 
-9999 -9999 -9999 -9999 -9999 -9999 -9999 -9999 -9999 -9999 -9999 -9999 -9999 -9999 -9999 -9999 -9999 -9999 -9999 418.9343 418.2021 417.3997 416.6885 416.1163 415.611 415.3441 415.2232 415.0062 414.7144 414.3343 414.1603 413.9864 413.684 412.6422 412.6722 413.6207 413.985 414.7023 415.4138 415.9263 416.2106 416.781 417.1628 417.5473 417.9589 418.3981 418.8096 419.3024 419.6863 420.1016 420.4816 420.7144 420.9825 421.4044 421.8159 422.0081 422.2891 422.6652 -9999 -9999 -9999 -9999 -9999 -9999 -9999 -9999 -9999 -9999 -9999 -9999 -9999 -9999 -9999 -9999 -9999 -9999 -9999 -9999 -9999 -9999 -9999 -9999 -9999 -9999 -9999 -9999 -9999 -9999 -9999 -9999 -9999 -9999 -9999 -9999 -9999 -9999 
-9999 -9999 -9999 -9999 -9999 -9999 -9999 -9999 -9999 -9999 -9999 -9999 -9999 -9999 -9999 -9999 -9999 -9999 420.1919 419.3934 418.5809 417.8868 417.2348 416.6454 416.1566 415.7973 415.523 415.4159 415.1311 414.7542 414.5367 414.3051 413.7699 412.7535 413.4281 413.9985 414.2635 415.096 415.8398 416.394 416.8524 417.2273 417.7244 418.1302 418.5466 418.9471 419.4384 419.8446 420.2473 420.6587 420.9677 421.2602 421.4923 421.8765 422.3212 422.7342 423.097 423.4249 423.6874 -9999 -9999 -9999 -9999 -9999 -9999 -9999 -9999 -9999 -9999 -9999 -9999 -9999 -9999 -9999 -9999 -9999 -9999 -9999 -9999 -9999 -9999 -9999 -9999 -9999 -9999 -9999 -9999 -9999 -9999 -9999 -9999 -9999 -9999 -9999 -9999 -9999 
-9999 -9999 -9999 -9999 -9999 -9999 -9999 -9999 -9999 -9999 -9999 -9999 -9999 -9999 -9999 -9999 -9999 421.383 420.6412 419.8172 419.0474 418.3445 417.7191 417.1136 416.6037 416.2628 415.9284 415.769 415.4979 415.1924 414.8979 414.5394 413.7078 412.8651 413.9053 414.3068 414.6278 415.4856 416.2183 416.8792 417.3817 417.816 418.3005 418.8046 419.1571 419.581 420.0388 420.4321 420.7333 420.9984 421.4987 421.849 422.1318 422.4253 422.82 423.1763 423.5259 423.8129 424.0515 -9999 -9999 -9999 -9999 -9999 -9999 -9999 -9999 -9999 -9999 -9999 -9999 -9999 -9999 -9999 -9999 -9999 -9999 -9999 -9999 -9999 -9999 -9999 -9999 -9999 -9999 -9999 -9999 -9999 -9999 -9999 -9999 -9999 -9999 -9999 -9999 -9999 
-9999 -9999 -9999 -9999 -9999 -9999 -9999 -9999 -9999 -9999 -9999 -9999 -9999 -9999 -9999 -9999 422.3134 421.755 421.053 420.2621 419.5168 418.7986 418.1538 417.5953 417.0372 416.718 416.4168 416.1757 415.8908 415.5283 415.3128 414.8272 413.6754 413.3315 414.3541 414.6681 415.1147 416.0255 416.7835 417.3901 417.8548 418.407 418.9732 419.3864 419.7402 420.1579 420.5571 420.9899 421.3291 421.5567 422.0356 422.3786 422.5466 422.9332 423.2827 423.6266 423.9365 424.1678 424.3982 424.5414 -9999 -9999 -9999 -9999 -9999 -9999 -9999 -9999 -9999 -9999 -9999 -9999 -9999 -9999 -9999 -9999 -9999 -9999 -9999 -9999 -9999 -9999 -9999 -9999 -9999 -9999 -9999 -9999 -9999 -9999 -9999 -9999 -9999 -9999 -9999 -9999 
-9999 -9999 -9999 -9999 -9999 -9999 -9999 -9999 -9999 -9999 -9999 -9999 -9999 -9999 -9999 423.3111 422.7002 422.0617 421.2626 420.5553 419.8456 419.2379 418.5875 418.1137 417.5048 417.2934 416.9916 416.5862 416.2581 415.9395 415.6641 415.0623 413.7476 414.0835 415.0328 415.06 415.6191 416.6025 417.3416 417.8853 418.4014 419.0838 419.6231 420.0145 420.3922 420.6987 421.0634 421.5755 421.8959 422.3142 422.204 422.674 422.9698 423.4553 423.8001 424.1591 424.3869 424.624 424.8071 424.9286 425.2736 425.9203 -9999 -9999 -9999 -9999 -9999 -9999 -9999 -9999 -9999 -9999 -9999 -9999 -9999 -9999 -9999 -9999 -9999 -9999 -9999 -9999 -9999 -9999 -9999 -9999 -9999 -9999 -9999 -9999 -9999 -9999 -9999 -9999 -9999 -9999 
-9999 -9999 -9999 -9999 -9999 -9999 -9999 -9999 -9999 -9999 -9999 -9999 -9999 -9999 424.3954 423.7892 423.1073 422.3958 421.5371 420.9036 420.2923 419.6953 419.0849 418.5835 418.1736 417.8813 417.4857 417.0749 416.6523 416.3742 416.0808 415.3761 413.9192 414.9403 415.4671 415.5508 416.2074 417.0435 417.7564 418.3787 419.0497 419.6546 420.2457 420.6767 421.0063 421.1746 421.3712 421.9596 422.3704 422.8383 422.8271 423.0573 423.5034 424.0292 424.3803 424.675 424.9 425.1042 425.2619 425.3461 425.6063 426.261 426.7858 -9999 -9999 -9999 -9999 -9999 -9999 -9999 -9999 -9999 -9999 -9999 -9999 -9999 -9999 -9999 -9999 -9999 -9999 -9999 -9999 -9999 -9999 -9999 -9999 -9999 -9999 -9999 -9999 -9999 -9999 -9999 -9999 -9999 
-9999 -9999 -9999 -9999 -9999 -9999 -9999 -9999 -9999 -9999 -9999 -9999 -9999 425.3336 424.8665 424.2656 423.6098 422.7624 422.0183 421.3302 420.8092 420.2054 419.5064 419.0378 418.7565 418.4477 417.958 417.5681 417.2311 416.8499 416.7311 416.1499 414.403 415.4965 415.8531 416.0925 416.8308 417.7139 418.4088 418.9568 419.6367 420.2665 420.8271 421.2571 421.5683 421.7425 421.9937 422.3929 422.8264 423.3067 423.6823 423.718 424.0449 424.5696 425.0284 425.3238 425.6513 425.6758 425.7529 425.8102 426.0087 426.6124 427.1829 -9999 -9999 -9999 -9999 -9999 -9999 -9999 -9999 -9999 -9999 -9999 -9999 -9999 -9999 -9999 -9999 -9999 -9999 -9999 -9999 -9999 -9999 -9999 -9999 -9999 -9999 -9999 -9999 -9999 -9999 -9999 -9999 -9999 
-9999 -9999 -9999 -9999 -9999 -9999 -9999 -9999 -9999 -9999 -9999 -9999 426.4747 425.8148 425.19 424.5594 423.8849 423.0969 422.3875 421.7447 421.1768 420.6245 420.1304 419.7142 419.4084 419.0442 418.5713 418.1949 417.9127 417.7039 417.3393 416.4214 414.9627 416.2777 416.3552 416.8287 417.5771 418.4024 419.1122 419.6943 420.3376 420.9772 421.3987 421.8766 422.2274 422.3513 422.5778 422.9059 423.285 423.6882 424.2068 424.409 424.3887 424.8542 425.4054 425.7715 425.9379 426.1719 426.3277 426.4117 426.5331 427.1723 427.825 428.378 -9999 -9999 -9999 -9999 -9999 -9999 -9999 -9999 -9999 -9999 -9999 -9999 -9999 -9999 -9999 -9999 -9999 -9999 -9999 -9999 -9999 -9999 -9999 -9999 -9999 -9999 -9999 -9999 -9999 -9999 -9999 -9999 
-9999 -9999 -9999 -9999 -9999 -9999 -9999 -9999 -9999 -9999 -9999 427.9554 427.135 426.3809 425.6284 424.8947 424.2721 423.5183 422.8256 422.1873 421.5518 421.0607 420.7106 420.3418 420.1208 419.7249 419.2614 418.8788 418.5362 418.2368 417.9245 417.1679 415.8326 416.3554 416.9157 417.5922 418.3561 419.1083 419.8136 420.389 420.9934 421.5899 422.0261 422.4883 422.8348 422.9688 423.1746 423.498 423.7816 424.192 424.672 424.9806 425.1241 425.3003 425.7748 426.1029 426.4517 426.7771 427.0505 427.243 427.4961 427.8953 428.4137 428.8918 429.2483 -9999 -9999 -9999 -9999 -9999 -9999 -9999 -9999 -9999 -9999 -9999 -9999 -9999 -9999 -9999 -9999 -9999 -9999 -9999 -9999 -9999 -9999 -9999 -9999 -9999 -9999 -9999 -9999 -9999 -9999 -9999 
-9999 -9999 -9999 -9999 -9999 -9999 -9999 -9999 -9999 -9999 429.687 428.7511 427.8787 427.003 426.1701 425.3924 424.5811 423.9242 423.3026 422.6451 422.1234 421.5947 421.2043 421.0625 420.7845 420.4148 419.9817 419.5751 419.1534 418.673 418.1522 417.4984 416.6425 416.8666 417.5659 418.2757 419.0715 419.781 420.4353 421.0568 421.689 422.2634 422.7714 423.1525 423.4377 423.7007 423.8774 424.0898 424.303 424.6754 425.0384 425.4685 425.7523 425.8192 426.3067 426.7487 427.0928 427.432 427.7101 428.0648 428.4923 428.7458 429.1031 429.4932 429.8145 430.3767 -9999 -9999 -9999 -9999 -9999 -9999 -9999 -9999 -9999 -9999 -9999 -9999 -9999 -9999 -9999 -9999 -9999 -9999 -9999 -9999 -9999 -9999 -9999 -9999 -9999 -9999 -9999 -9999 -9999 -9999 
-9999 -9999 -9999 -9999 -9999 -9999 -9999 -9999 -9999 431.5561 430.7409 429.8244 428.7899 427.7852 426.8731 425.8969 424.9995 424.3334 423.7176 423.1728 422.6592 422.1044 421.7001 421.6025 421.5046 421.252 420.8558 420.2932 419.6563 419.2188 418.4898 417.7169 417.4227 417.6874 418.318 419.1018 419.7897 420.5051 421.1563 421.7345 422.3174 422.9206 423.4888 423.8087 424.1034 424.3593 424.5641 424.5761 424.7419 425.07 425.3872 425.7717 426.1891 426.2268 426.8433 427.3499 427.744 428.1103 428.4192 428.7062 429.124 429.4062 429.7415 430.0905 430.4142 430.9356 431.5674 -9999 -9999 -9999 -9999 -9999 -9999 -9999 -9999 -9999 -9999 -9999 -9999 -9999 -9999 -9999 -9999 -9999 -9999 -9999 -9999 -9999 -9999 -9999 -9999 -9999 -9999 -9999 -9999 -9999 
-9999 -9999 -9999 -9999 -9999 -9999 -9999 -9999 433.1806 432.806 431.9214 430.8434 429.7522 428.6801 427.5279 426.5286 425.5483 424.7251 424.1614 423.725 423.2641 422.6868 422.3716 422.292 422.3417 422.0681 421.6501 420.9761 420.2027 419.6797 418.4995 417.5364 417.8403 418.3919 418.9924 419.7538 420.4648 421.1205 421.6688 422.2331 422.9169 423.4911 423.9992 424.332 424.5957 424.8497 425.0427 425.1468 425.3076 425.5869 425.8766 426.244 426.5619 426.822 427.2911 427.7372 428.3185 428.7866 429.1657 429.4789 429.8059 430.0268 430.3533 430.6073 431.0446 431.5901 432.1464 432.6448 -9999 -9999 -9999 -9999 -9999 -9999 -9999 -9999 -9999 -9999 -9999 -9999 -9999 -9999 -9999 -9999 -9999 -9999 -9999 -9999 -9999 -9999 -9999 -9999 -9999 -9999 -9999 -9999 
-9999 -9999 -9999 -9999 -9999 -9999 -9999 -9999 433.9132 433.5793 432.9196 431.8166 430.6726 429.6448 428.3428 427.2369 426.1657 425.2763 424.626 424.1891 423.7596 423.3355 423.1429 422.8856 422.8514 422.7288 422.2458 421.4117 420.5074 419.6546 418.4527 417.7102 418.0956 418.9122 419.5789 420.3115 421.0321 421.6169 422.1294 422.7525 423.4699 423.9662 424.4308 424.8097 425.0296 425.3102 425.4774 425.6826 425.8757 426.2079 426.4486 426.7487 427.0599 427.4677 427.8252 428.2589 428.8305 429.3653 429.8643 430.1805 430.3772 430.5785 430.9409 431.3006 431.7382 432.3151 432.7635 433.2773 433.7423 -9999 -9999 -9999 -9999 -9999 -9999 -9999 -9999 -9999 -9999 -9999 -9999 -9999 -9999 -9999 -9999 -9999 -9999 -9999 -9999 -9999 -9999 -9999 -9999 -9999 -9999 -9999 
-9999 -9999 -9999 -9999 -9999 -9999 -9999 434.9684 434.4249 434.0862 433.6133 432.6426 431.4241 430.5154 429.3406 427.9606 426.7654 425.9274 425.2306 424.7504 424.2349 423.9102 423.7475 423.5268 423.312 422.9395 422.4444 421.6104 420.7003 419.9339 419.1769 418.8236 418.4141 419.2978 420.2488 420.9199 421.5941 422.2045 422.7868 423.3231 423.9128 424.4566 424.8633 425.1665 425.4145 425.6837 425.9441 426.251 426.4264 426.6497 426.9822 427.2771 427.6621 428.0518 428.3629 428.7119 429.2594 429.8347 430.2613 430.6613 431.011 431.2855 431.6628 432.0434 432.5251 432.9749 433.4568 434.0071 434.4839 435.1689 435.6636 -9999 -9999 -9999 -9999 -9999 -9999 -9999 -9999 -9999 -9999 -9999 -9999 -9999 -9999 -9999 -9999 -9999 -9999 -9999 -9999 -9999 -9999 -9999 -9999 -9999 
-9999 -9999 -9999 -9999 -9999 -9999 436.2397 435.6095 435.0923 434.5945 434.0519 433.3102 432.391 431.5151 430.3047 428.8715 427.5962 426.7393 426.1175 425.4689 424.8418 424.4312 424.2784 424.109 423.6791 423.1908 422.6277 421.814 421.1735 420.8397 420.4633 419.9582 419.1516 419.8431 420.804 421.5023 422.1697 422.8035 423.3765 423.9474 424.5064 425.0023 425.3224 425.515 425.785 426.1369 426.4294 426.7706 426.9702 427.1309 427.494 428.0412 428.4049 428.6783 428.8963 429.1263 429.6041 430.2341 430.6165 431.0953 431.5559 431.9758 432.3498 432.89 433.418 433.7952 434.1083 434.5482 434.977 435.4457 436.0566 436.5849 -9999 -9999 -9999 -9999 -9999 -9999 -9999 -9999 -9999 -9999 -9999 -9999 -9999 -9999 -9999 -9999 -9999 -9999 -9999 -9999 -9999 -9999 -9999 -9999 
-9999 -9999 -9999 -9999 -9999 437.5697 436.7819 436.1281 435.6284 435.1283 434.535 433.954 433.4177 432.4615 431.2626 429.8275 428.5502 427.5836 426.9724 426.2475 425.632 425.0656 424.7138 424.469 424.0259 423.3901 422.7321 422.1081 421.8645 421.6128 421.2271 420.3933 419.9556 420.3191 421.233 422.0183 422.7448 423.3617 423.8112 424.497 425.0486 425.5038 425.8047 426.0026 426.2855 426.5825 426.9146 427.2492 427.5371 427.8563 428.4014 428.9642 429.1227 429.2262 429.481 429.751 429.8524 430.2774 430.8938 431.4901 432.1346 432.5552 433.0659 433.5982 434.1122 434.3763 434.6813 435.0342 435.4369 435.9066 436.4658 437.0078 437.5125 -9999 -9999 -9999 -9999 -9999 -9999 -9999 -9999 -9999 -9999 -9999 -9999 -9999 -9999 -9999 -9999 -9999 -9999 -9999 -9999 -9999 -9999 -9999 
-9999 -9999 -9999 440.5296 439.305 438.2422 437.4488 436.7603 436.11 435.5586 435.0096 434.442 433.869 433.1801 432.0155 430.775 429.6205 428.6126 427.6599 427.0302 426.4276 425.7362 425.2418 424.7677 424.2743 423.6809 422.9824 422.5193 422.3862 422.1582 421.7644 420.8423 420.4276 421.1102 421.791 422.5798 423.355 423.7729 424.4052 425.0573 425.5904 425.9826 426.2683 426.5122 426.846 427.1581 427.5146 427.8661 428.2087 428.5446 429.1135 429.4807 429.6684 429.8522 430.0556 430.3528 430.3737 430.4103 431.2093 431.9953 432.6905 433.2342 433.7232 434.2422 434.6671 434.9009 435.1966 435.5905 436.0331 436.5004 436.9856 437.4692 437.9101 -9999 -9999 -9999 -9999 -9999 -9999 -9999 -9999 -9999 -9999 -9999 -9999 -9999 -9999 -9999 -9999 -9999 -9999 -9999 -9999 -9999 -9999 -9999 
-9999 441.862 441.3885 440.5484 439.5358 438.642 437.9799 437.2563 436.6102 436.0199 435.4801 434.8898 434.2445 433.5664 432.6269 431.775 430.8669 429.7183 428.5854 427.7908 427.0039 426.36 425.7354 425.178 424.5307 423.9409 423.4081 423.0993 422.8731 422.5927 422.1365 421.1703 421.2598 421.7143 422.4281 423.2656 423.9608 424.4969 425.1065 425.7279 426.1884 426.4713 426.7916 427.1104 427.5162 427.8015 428.1509 428.5761 428.8595 429.2926 429.6732 429.8926 430.1496 430.3383 430.5283 430.8875 431.0341 430.7748 431.5235 432.481 433.2946 433.9531 434.3894 434.8427 435.1477 435.414 435.7669 436.175 436.6363 437.0995 437.5122 437.8733 438.2406 438.6781 -9999 -9999 -9999 -9999 -9999 -9999 -9999 -9999 -9999 -9999 -9999 -9999 -9999 -9999 -9999 -9999 -9999 -9999 -9999 -9999 -9999 -9999 
442.3098 442.0728 441.655 440.7722 439.8963 439.131 438.4125 437.7127 437.0618 436.5035 435.9576 435.3044 434.7226 434.0194 433.3003 432.7137 431.9139 430.9048 429.682 428.5861 427.7284 427.0298 426.3731 425.6548 424.9768 424.2018 423.878 423.675 423.2744 422.8537 422.2407 421.3571 421.9267 422.3024 423.1992 424.0692 424.6859 425.2408 425.973 426.5101 426.8374 427.1807 427.4686 427.8676 428.2738 428.4581 428.859 429.1913 429.4621 429.8349 430.1265 430.4084 430.6805 430.986 431.2277 431.5515 431.8592 431.6781 431.6251 432.679 433.6802 434.3076 434.8442 435.2719 435.5691 435.9868 436.3851 436.7493 437.1791 437.6703 438.0756 438.3656 438.7837 439.1787 439.5512 -9999 -9999 -9999 -9999 -9999 -9999 -9999 -9999 -9999 -9999 -9999 -9999 -9999 -9999 -9999 -9999 -9999 -9999 -9999 -9999 -9999 
442.5594 442.3684 441.9496 441.2179 440.3744 439.6763 438.998 438.3177 437.5652 436.9345 436.3459 435.8377 435.2093 434.56 434.0652 433.5296 432.8317 431.8881 430.5923 429.5432 428.6224 427.8489 427.1432 426.283 425.3611 424.6981 424.51 424.1063 423.735 423.1994 422.5249 421.8358 422.4891 423.1084 423.9977 424.8232 425.5358 426.2424 426.8398 427.3054 427.6795 428.0081 428.3163 428.6285 428.9489 429.3508 429.7112 429.9444 430.2453 430.6126 430.7085 431.1068 431.3258 431.6835 432.0895 432.4276 432.6182 432.6154 432.4962 432.8566 433.8921 434.6469 435.3316 435.72 436.139 436.5921 436.9976 437.3648 437.7896 438.2714 438.6219 438.9732 439.3318 439.7487 440.1473 440.4887 -9999 -9999 -9999 -9999 -9999 -9999 -9999 -9999 -9999 -9999 -9999 -9999 -9999 -9999 -9999 -9999 -9999 -9999 -9999 -9999 
442.8365 442.6828 442.3928 441.8763 440.9779 440.1576 439.5164 438.8589 438.1945 437.4936 436.7986 436.3334 435.7494 435.056 434.5779 434.1041 433.3599 432.4107 431.3612 430.4659 429.6181 428.8713 428.1414 427.2492 426.0293 425.6504 425.4316 424.9127 424.3218 423.7413 423.1052 422.4547 422.8237 423.8091 424.7817 425.7477 426.4675 427.1921 427.7471 428.1695 428.4659 428.7914 429.1322 429.4562 429.8999 430.2358 430.5502 430.8725 431.2561 431.5502 431.7689 431.9541 432.1154 432.401 432.8725 433.273 433.4777 433.5371 433.6331 433.6924 434.3559 435.2866 435.9605 436.4117 436.8306 437.1988 437.5486 437.9555 438.4402 438.8872 439.2819 439.669 439.9525 440.3899 440.7755 441.1444 441.5096 -9999 -9999 -9999 -9999 -9999 -9999 -9999 -9999 -9999 -9999 -9999 -9999 -9999 -9999 -9999 -9999 -9999 -9999 -9999 
443.1032 442.9749 442.7489 442.4752 441.696 440.8395 440.1107 439.4068 438.7511 438.1259 437.3594 436.6489 436.1403 435.545 434.9787 434.4399 433.7777 432.7787 431.8374 431.1788 430.5416 429.8748 429.3189 428.4771 427.4073 426.882 426.4657 425.9754 425.2831 424.5116 423.8405 423.1786 423.092 424.2009 425.4501 426.5938 427.517 428.1769 428.5781 428.9399 429.2948 429.633 430.0578 430.4088 430.7622 431.0966 431.6176 432.0693 432.38 432.6369 432.8101 433.0121 433.1084 433.2096 433.6996 434.0414 434.3701 434.4892 434.6342 434.8965 435.3119 436.0814 436.8434 437.1402 437.5205 437.8548 438.2524 438.6837 439.1012 439.4934 439.8949 440.2561 440.5655 440.9771 441.3929 441.6224 441.9684 -9999 -9999 -9999 -9999 -9999 -9999 -9999 -9999 -9999 -9999 -9999 -9999 -9999 -9999 -9999 -9999 -9999 -9999 -9999 
443.4161 443.3492 443.1547 442.8479 442.3319 441.631 440.9006 440.0584 439.3081 438.7111 437.9361 437.171 436.5246 436.0494 435.4707 434.7701 434.0832 433.2379 432.3263 431.6602 431.2819 430.799 430.5811 430.0315 429.1014 428.5085 427.7696 427.0276 426.4473 425.5883 424.6869 424.0241 423.6335 424.7135 426.0139 427.2281 428.3404 429.0106 429.4429 429.8306 430.2059 430.48 430.7772 431.1447 431.7518 432.3596 432.9319 433.2579 433.5993 433.8934 433.9773 434.0833 434.154 434.2615 434.5644 434.8591 435.1957 435.379 435.6646 436.1357 436.6208 437.0061 437.4253 437.7611 438.2716 438.656 439.0509 439.4374 439.7791 440.1385 440.4863 440.7996 441.1275 441.5273 441.8912 442.2826 442.6313 443.0469 -9999 -9999 -9999 -9999 -9999 -9999 -9999 -9999 -9999 -9999 -9999 -9999 -9999 -9999 -9999 -9999 -9999 -9999 
443.6429 443.6343 443.4872 443.2072 442.9638 442.4299 441.7635 440.9374 440.0512 439.2928 438.5427 437.7527 436.9341 436.459 435.9713 435.2473 434.3684 433.5814 433.0442 432.4503 432.0295 431.7313 431.4386 430.8761 430.7206 430.1322 429.2974 428.4279 427.4933 426.7083 425.6834 424.9532 424.386 424.9076 426.3181 427.6703 428.9053 429.8056 430.3212 430.7104 430.8624 431.2258 431.7351 432.3224 433.0252 433.7492 434.2018 434.5935 434.8645 435.1341 435.2843 435.3022 435.185 435.119 435.1432 435.4132 435.8228 436.248 436.6847 437.1757 437.6755 437.87 438.2215 438.5261 438.9808 439.3944 439.7925 440.194 440.4049 440.6578 441.0967 441.4717 441.7935 442.2312 442.5828 443.0002 443.3542 443.7422 444.1212 -9999 -9999 -9999 -9999 -9999 -9999 -9999 -9999 -9999 -9999 -9999 -9999 -9999 -9999 -9999 -9999 -9999 
443.8261 443.8252 443.7626 443.6029 443.3788 443.0877 442.6204 441.9099 440.7456 439.9043 439.1465 438.3976 437.5922 436.9181 436.3748 435.6753 434.8036 434.2142 433.5809 433.1687 432.7294 432.424 432.0006 431.4582 431.4655 431.2251 430.7773 429.8879 428.7848 427.732 426.7806 425.9561 425.2289 425.2083 426.7658 428.3036 429.4364 430.4926 431.0932 431.3245 431.7063 432.2346 432.9057 433.5459 434.2245 434.8909 435.28 435.7046 436.1828 436.4072 436.4709 436.3707 436.094 435.9563 435.9259 436.0194 436.5145 437.0478 437.574 437.8817 438.2015 438.5591 438.9215 439.2125 439.675 440.1397 440.386 440.6721 441.0096 441.439 441.8268 442.1951 442.5372 442.947 443.3192 443.6931 444.0894 444.5326 444.9164 445.3336 -9999 -9999 -9999 -9999 -9999 -9999 -9999 -9999 -9999 -9999 -9999 -9999 -9999 -9999 -9999 -9999 
444.0203 444.0477 443.9993 443.8824 443.7092 443.4977 443.1892 442.5904 441.6073 440.6302 439.7607 439 438.1947 437.3806 436.8324 436.2507 435.5805 434.9685 434.3197 433.7251 433.2902 432.859 432.3635 432.0039 432.1509 432.1793 431.9692 431.071 430.1998 428.8482 427.6985 426.7366 425.9827 425.8059 427.5129 429.3158 430.3282 431.1136 431.6705 432.1157 432.5975 433.3268 434.0637 434.6701 435.3398 435.8456 436.0434 436.6035 437.0599 437.2431 437.2751 437.1667 436.907 436.6911 436.7364 436.8557 437.2348 437.7426 438.1707 438.5566 438.8553 439.1765 439.5151 439.9167 440.3662 440.7283 441.005 441.3972 441.8408 442.2312 442.3957 442.7677 443.175 443.489 443.9232 444.3932 444.8914 445.366 445.7758 446.1676 -9999 -9999 -9999 -9999 -9999 -9999 -9999 -9999 -9999 -9999 -9999 -9999 -9999 -9999 -9999 -9999 
444.2422 444.2556 444.2453 444.1615 444.0046 443.8933 443.5501 443.1972 442.3885 441.3234 440.3611 439.5439 438.6932 438.0529 437.4573 436.8159 436.3144 435.6701 434.9774 434.226 433.675 433.2629 432.7398 432.7164 432.7023 432.6211 432.4018 431.8201 431.1028 429.8866 428.8281 427.7975 426.6191 426.6455 428.5014 430.0282 430.9007 431.6262 432.3577 433.1111 433.7283 434.3942 435.0859 435.7921 436.3537 436.6932 436.8318 437.2015 437.7117 437.9731 437.9619 437.837 437.6479 437.5371 437.5886 437.699 437.9806 438.5191 438.9521 439.3068 439.5656 439.7651 440.153 440.5002 440.9746 441.4316 441.7873 442.1556 442.4973 442.8067 443.0534 443.3757 443.73 444.1519 444.6417 445.1828 445.6917 446.1764 446.6266 446.9724 447.3617 -9999 -9999 -9999 -9999 -9999 -9999 -9999 -9999 -9999 -9999 -9999 -9999 -9999 -9999 -9999 
444.4268 444.4287 444.4157 444.3513 444.3034 444.0945 443.9164 443.5337 442.911 441.912 440.9741 440.0487 439.2954 438.7539 438.2113 437.5423 436.8898 436.2094 435.4484 434.6696 434.1142 433.6483 433.116 433.2232 433.2898 433.1199 432.6573 432.0498 431.3457 430.5138 430.3729 428.9031 427.2152 427.4294 429.5171 430.527 431.5027 432.3518 433.2582 434.1416 434.8415 435.4453 436.1473 436.7194 437.1554 437.4061 437.567 437.8607 438.2586 438.4543 438.4823 438.4563 438.4013 438.3737 438.3531 438.5643 438.964 439.5102 439.8516 440.0757 440.3092 440.5156 440.7992 441.2102 441.6621 442.1043 442.4318 442.8084 443.1731 443.4769 443.8096 444.1436 444.5533 444.9768 445.4199 445.862 446.3448 446.8729 447.3154 447.6943 448.0526 448.4278 -9999 -9999 -9999 -9999 -9999 -9999 -9999 -9999 -9999 -9999 -9999 -9999 -9999 -9999 
444.5942 444.6396 444.5992 444.5544 444.5067 444.3474 444.1785 443.7969 443.1769 442.295 441.391 440.5917 439.8108 439.212 438.7375 438.1828 437.468 436.7053 435.8245 435.0236 434.4397 433.9944 433.5299 433.6659 433.7231 433.5717 433.011 432.3808 431.6965 431.4312 431.2293 429.9246 428.2644 428.3346 429.8393 431.0889 432.106 433.1965 434.2948 435.2425 435.9591 436.4648 436.9142 437.2405 437.6322 437.9373 438.2347 438.4818 438.7661 438.9463 438.9915 438.9846 439.0981 439.0428 439.1118 439.3651 439.8569 440.2775 440.5245 440.6366 440.9073 441.2208 441.5258 441.8933 442.3135 442.7397 443.1154 443.5045 443.8943 444.2288 444.5804 444.9502 445.3425 445.748 446.1946 446.679 447.0711 447.4492 447.9317 448.2768 448.5635 448.9112 449.2714 -9999 -9999 -9999 -9999 -9999 -9999 -9999 -9999 -9999 -9999 -9999 -9999 -9999 
444.7531 444.7898 444.7758 444.7375 444.6272 444.5389 444.3437 443.9981 443.5376 442.625 441.7427 441.0668 440.4295 439.7773 439.1724 438.5378 437.8217 437.0999 436.1559 435.3957 434.8295 434.4119 433.9921 434.1562 434.1471 434.0106 433.4646 432.7925 432.3664 432.2497 432.0171 431.2741 430.0479 429.8344 430.7775 431.7138 432.8367 434.0879 435.3477 436.1693 436.7691 437.217 437.4346 437.938 438.4202 438.7263 438.8939 439.1485 439.2615 439.3954 439.4826 439.555 439.5308 439.6146 439.7364 440.0062 440.5289 440.908 441.0945 441.2781 441.5995 441.933 442.1697 442.535 442.9651 443.3557 443.8282 444.2088 444.5653 444.9426 445.2844 445.6879 446.1349 446.5996 447.0011 447.3854 447.7927 448.1741 448.5363 448.8775 449.187 449.5156 449.8938 450.2061 -9999 -9999 -9999 -9999 -9999 -9999 -9999 -9999 -9999 -9999 -9999 -9999 
-9999 444.9002 444.8934 444.8512 444.7714 444.7312 444.5345 444.2221 443.7814 442.875 442.0534 441.571 440.9965 440.4002 439.656 438.9255 438.1501 437.3861 436.5176 435.7825 435.1901 434.6792 434.5775 434.6871 434.6589 434.4271 433.9905 433.4847 433.3983 433.1491 432.7625 432.2506 430.8948 430.3904 431.5074 432.4547 433.5439 434.7828 436.0728 436.8896 437.3988 437.7737 438.1066 438.6824 439.1735 439.3922 439.5496 439.7062 439.8166 439.9365 440.0198 440.0791 440.1121 440.2546 440.4476 440.905 441.3839 441.6249 441.7993 442.001 442.2713 442.6625 442.9392 443.3244 443.7149 444.1077 444.4959 444.8818 445.2386 445.5849 445.9096 446.4243 446.8598 447.3214 447.5787 448.0053 448.4249 448.8498 449.2279 449.5865 449.8998 450.2548 450.5779 450.8399 -9999 -9999 -9999 -9999 -9999 -9999 -9999 -9999 -9999 -9999 -9999 -9999 
-9999 445.0136 445.0125 444.9639 444.9088 444.8488 444.7088 444.4749 444.0805 443.4185 442.6655 442.1647 441.538 441.0069 440.2728 439.359 438.5273 437.6945 436.8465 436.1212 435.454 435.0668 435.2899 435.3194 435.246 435.0115 434.6291 434.4979 434.3518 434.0001 433.2545 432.4992 431.3358 431.3525 432.2094 433.3534 434.4908 435.5108 436.5786 437.5442 438.1768 438.4907 438.7973 439.2298 439.6432 439.9282 440.0757 440.2274 440.3908 440.4591 440.5934 440.7357 440.7754 441.0005 441.292 441.7784 442.141 442.2846 442.4846 442.758 443.108 443.4055 443.6852 444.0589 444.4627 444.856 445.1777 445.5158 445.8611 446.2113 446.6284 447.1036 447.5121 447.8666 448.1889 448.5263 449.0279 449.4855 449.8916 450.2876 450.6091 450.972 451.2087 451.3929 -9999 -9999 -9999 -9999 -9999 -9999 -9999 -9999 -9999 -9999 -9999 -9999 
-9999 445.0859 445.1329 445.071 444.9815 444.9304 444.8555 444.709 444.4359 443.89 443.2243 442.6432 442.0699 441.5849 440.7755 439.7246 438.7511 437.7578 436.9115 436.3571 436.1531 435.8372 435.985 436.114 436.0374 435.8027 435.4982 435.4312 435.3575 434.6665 433.7176 432.7685 432.3452 432.7617 433.312 434.3609 435.461 436.4266 437.2226 437.9926 438.6191 438.996 439.3543 439.7547 440.0345 440.3394 440.5689 440.7428 440.9214 441.0616 441.2225 441.3878 441.5346 441.7961 442.1019 442.4672 442.7668 442.9562 443.3077 443.6353 443.8094 443.988 444.2967 444.7224 445.1082 445.5314 445.8399 446.2183 446.5693 446.939 447.338 447.7761 448.0869 448.4027 448.7286 449.1157 449.6968 450.0734 450.5049 450.9315 451.3097 451.6128 451.7959 451.9335 -9999 -9999 -9999 -9999 -9999 -9999 -9999 -9999 -9999 -9999 -9999 -9999 
-9999 445.1693 445.2048 445.1734 445.0931 445.0364 445.007 444.8897 444.7007 444.411 443.8377 443.3018 442.5554 441.9925 441.0866 440.0421 438.9638 438.0596 437.2726 437.1659 436.8376 436.656 436.9196 436.9623 436.8618 436.6748 436.4214 436.199 435.8467 434.9979 434.0665 433.1667 433.5832 434.1861 434.9017 435.2292 436.01 436.8568 437.621 438.4019 439.0236 439.4423 439.8958 440.2529 440.4694 440.7913 441.0753 441.251 441.5108 441.7336 441.9363 442.1597 442.335 442.5789 442.8484 443.1481 443.3456 443.6093 443.9067 444.191 444.4123 444.5286 444.8285 445.3798 445.722 446.0931 446.4728 446.8639 447.2668 447.6862 448.0624 448.3405 448.5875 448.9123 449.3319 449.809 450.2257 450.6819 451.1361 451.4986 451.8463 452.1454 452.327 452.4252 -9999 -9999 -9999 -9999 -9999 -9999 -9999 -9999 -9999 -9999 -9999 -9999 
-9999 445.236 445.2516 445.2173 445.2089 445.1601 445.148 445.0753 444.9737 444.7756 444.4202 443.9173 443.1635 442.5 441.5768 440.5068 439.4337 438.7055 438.1988 437.9106 437.6852 437.6189 437.8374 438.027 437.8479 437.6523 437.5298 437.0522 436.4753 435.6113 434.5787 433.9334 434.6975 435.168 435.7224 435.8802 436.3094 437.1682 438.1046 438.98 439.4932 439.9867 440.4644 440.7536 440.9793 441.2874 441.5523 441.7814 442.0418 442.3229 442.5971 442.8517 443.0804 443.2985 443.5408 443.6332 443.92 444.2313 444.5154 444.8401 445.0618 445.2581 445.5219 445.9727 446.3937 446.7708 447.1647 447.5676 447.9576 448.3708 448.6282 448.8601 449.1852 449.5429 449.9641 450.5526 450.903 451.3955 451.7927 452.1134 452.4384 452.6843 452.821 452.9312 -9999 -9999 -9999 -9999 -9999 -9999 -9999 -9999 -9999 -9999 -9999 -9999 
-9999 445.3224 445.3399 445.3712 445.3963 445.346 445.2871 445.2647 445.2397 445.1207 444.9158 444.4805 443.8376 443.1011 442.3664 441.1551 440.3218 439.6184 439.2498 438.9922 438.792 438.614 438.7076 438.7756 438.6039 438.4388 438.1688 437.9498 437.53 436.4284 435.0888 434.7866 435.6155 436.0833 436.4936 436.7735 436.9031 437.5194 438.5175 439.4396 439.9759 440.5491 440.9708 441.2005 441.5428 441.884 442.0869 442.3026 442.6112 443.0174 443.2746 443.4861 443.7538 443.8798 444.1285 444.3045 444.5958 444.9087 445.1759 445.4091 445.6325 445.9051 446.2894 446.701 447.1045 447.5109 447.8968 448.2795 448.6511 448.9128 449.1804 449.5677 449.9257 450.3582 450.8989 451.2362 451.6911 452.1064 452.4259 452.7525 453.0929 453.3065 453.443 453.5463 -9999 -9999 -9999 -9999 -9999 -9999 -9999 -9999 -9999 -9999 -9999 -9999 
-9999 -9999 445.471 445.5247 445.531 445.5018 445.4862 445.46 445.4372 445.3613 445.1909 444.986 444.5366 443.9908 443.1979 442.2646 441.3617 440.7624 440.244 439.9963 439.7449 439.5793 439.5475 439.488 439.328 438.9751 438.8369 438.6381 438.2995 437.2175 435.7596 435.6732 436.6408 437.2782 437.6193 437.8429 437.8947 438.3326 439.0516 439.902 440.6168 441.1011 441.4195 441.7293 442.0634 442.3537 442.5918 442.8825 443.2324 443.5417 443.7779 443.9519 444.2544 444.604 444.91 445.1006 445.3416 445.4799 445.7471 445.9978 446.1831 446.5099 447.0493 447.5267 447.9155 448.2675 448.6088 448.9796 449.2403 449.5733 449.9304 450.2662 450.672 451.2029 451.7213 452.1547 452.5782 452.9209 453.1356 453.42 453.7228 454.0197 454.2333 454.4321 -9999 -9999 -9999 -9999 -9999 -9999 -9999 -9999 -9999 -9999 -9999 -9999 
-9999 -9999 445.6284 445.6931 445.6759 445.6825 445.7302 445.7436 445.6847 445.6035 445.4889 445.3245 445.1341 444.8688 444.2187 443.4491 442.7289 442.12 441.5825 441.101 440.7012 440.4654 440.4192 440.3198 440.0857 439.8247 439.502 439.1778 438.8136 437.8885 436.6723 436.6938 437.7483 438.6139 438.8423 438.9825 439.1617 439.4772 439.9207 440.6992 441.2221 441.5466 441.8611 442.2887 442.5767 442.8734 443.2291 443.525 443.7537 444.0057 444.2442 444.4948 444.8624 445.2311 445.5032 445.6898 445.9042 446.1696 446.434 446.7231 446.9045 447.2742 448.0471 448.4804 448.7825 449.0817 449.3313 449.537 449.8654 450.2593 450.636 451.0263 451.5691 452.104 452.6245 453.0874 453.3829 453.5539 453.8622 454.1976 454.808 455.1224 455.4197 455.6077 455.6195 -9999 -9999 -9999 -9999 -9999 -9999 -9999 -9999 -9999 -9999 -9999 
-9999 -9999 445.7438 445.7673 445.8286 445.8649 445.9304 445.94 445.9032 445.8467 445.7235 445.5953 445.4741 445.3183 444.9902 444.6209 444.0675 443.6008 443.0384 442.4747 441.9819 441.6812 441.5565 441.2795 441 440.6052 440.2876 439.8533 439.3181 438.5976 437.8273 438.271 438.8866 439.4202 439.9579 440.1043 440.406 440.6913 440.9895 441.336 441.7597 442.108 442.4793 442.8582 443.1517 443.4903 443.8253 444.0796 444.3446 444.5552 444.8923 445.1574 445.4843 445.8153 446.1319 446.3625 446.6342 446.9845 447.285 447.5238 447.8142 448.3243 448.9662 449.3447 449.5499 449.8179 449.9547 450.1819 450.5859 450.9857 451.4048 451.8901 452.4539 452.9839 453.5099 453.9753 454.2411 454.2908 454.6862 455.2166 455.9772 456.2498 456.5604 456.8329 457.0009 -9999 -9999 -9999 -9999 -9999 -9999 -9999 -9999 -9999 -9999 -9999 
-9999 -9999 -9999 445.9018 445.9837 446.0025 446.0631 446.1182 446.1468 446.0865 445.965 445.8565 445.7492 445.6383 445.4821 445.2325 445.0307 444.9312 444.3959 443.9208 443.4988 443.1164 442.9718 442.6675 442.1516 441.7579 441.347 440.7468 440.0448 439.4869 439.2007 439.8423 440.1706 440.3391 440.949 441.2686 441.5143 441.6516 441.8171 442.1561 442.5404 442.8775 443.2113 443.4591 443.8456 444.1629 444.4795 444.7263 445.0592 445.3134 445.6164 445.9133 446.1149 446.4164 446.7829 447.1051 447.4035 447.7292 448.0387 448.297 448.7107 449.2454 449.76 450.0673 450.3134 450.4519 450.626 450.8722 451.2832 451.6726 452.1351 452.6359 453.2012 453.7422 454.3077 454.6904 454.868 455.2314 455.7534 456.3495 456.9363 457.4333 457.836 458.131 458.3983 -9999 -9999 -9999 -9999 -9999 -9999 -9999 -9999 -9999 -9999 -9999 
-9999 -9999 -9999 446.039 446.1047 446.1658 446.2607 446.3237 446.3261 446.2451 446.1761 446.1189 445.9956 445.8954 445.8317 445.6934 445.5321 445.4092 445.283 444.9993 444.7391 444.4833 444.2725 444.0039 443.4297 442.9021 442.5815 442.041 441.342 440.7187 440.5021 440.8966 441.088 441.2534 441.6786 442.1273 442.4371 442.5834 442.7774 443.0248 443.2195 443.6129 443.9523 444.1639 444.5271 444.8513 445.1846 445.4382 445.7306 446.0104 446.3431 446.601 446.8004 447.0701 447.4705 447.8776 448.1745 448.41 448.7385 449.1136 449.5493 450.0182 450.4482 450.8088 451.0401 451.2547 451.3311 451.5734 451.8601 452.2861 452.7395 453.2853 453.859 454.3711 454.7925 455.2607 455.808 456.3362 456.9175 457.4378 458.0063 458.5802 459.0953 459.45 459.6364 -9999 -9999 -9999 -9999 -9999 -9999 -9999 -9999 -9999 -9999 -9999 
-9999 -9999 -9999 -9999 446.2422 446.3085 446.4236 446.5333 446.5186 446.4631 446.4355 446.3808 446.2618 446.1928 446.1293 446.0601 445.9644 445.8669 445.7957 445.6526 445.4855 445.3811 445.2669 445.063 444.5819 444.2497 443.92 443.5569 442.8379 442.0549 441.7247 441.7327 441.9428 442.2173 442.5081 442.8999 443.2498 443.4254 443.6973 443.9082 444.0646 444.3787 444.6821 444.8949 445.2905 445.6433 445.8807 446.1354 446.4467 446.7096 447.0494 447.3285 447.5195 447.7936 448.2476 448.6091 448.8841 449.1502 449.4687 449.8814 450.3467 450.744 451.1665 451.4881 451.7818 452.0503 452.1619 452.2769 452.5226 452.8935 453.3772 453.9063 454.4092 454.7803 455.377 456.0927 456.8062 457.536 458.0961 458.5021 459.0577 459.6383 460.0468 460.3383 460.5371 -9999 -9999 -9999 -9999 -9999 -9999 -9999 -9999 -9999 -9999 -9999 
-9999 -9999 -9999 -9999 -9999 446.4494 446.5555 446.6284 446.6417 446.6237 446.648 446.5962 446.527 446.5023 446.4907 446.4303 446.3493 446.2748 446.2018 446.1348 446.0382 446.0168 445.8524 445.7559 445.5453 445.3524 445.0833 444.8017 444.2495 443.5173 443.1704 443.0761 443.0612 443.2085 443.392 443.7223 444.0001 444.2904 444.6154 444.6475 444.967 445.2202 445.4655 445.7096 446.0446 446.3709 446.741 446.9971 447.152 447.4122 447.7372 448.0778 448.311 448.606 449.0247 449.3409 449.5484 449.8434 450.1255 450.5179 451.0039 451.4466 451.9566 452.1967 452.3358 452.5142 452.8213 452.9122 453.0707 453.5099 453.9415 454.3823 454.9207 455.4087 456.0139 456.8719 457.6794 458.6482 459.2624 459.7971 460.131 460.4815 460.7516 461.0218 461.2287 -9999 -9999 -9999 -9999 -9999 -9999 -9999 -9999 -9999 -9999 -9999 
-9999 -9999 -9999 -9999 -9999 446.5618 446.6667 446.7342 446.7733 446.7824 446.7935 446.7964 446.748 446.7736 446.8061 446.7733 446.7152 446.6773 446.6323 446.5844 446.5699 446.4911 446.3961 446.3311 446.2374 446.0171 445.8134 445.626 445.4232 444.8726 444.5706 444.4179 444.3609 444.2922 444.3262 444.6091 444.8533 445.1535 445.2761 445.5165 445.8167 446.0567 446.2154 446.4834 446.7148 447.098 447.4392 447.7383 447.8709 448.1566 448.4225 448.7266 449.0915 449.519 449.8142 450.1574 450.2828 450.5018 450.7985 451.151 451.6335 452.1166 452.5429 452.664 452.885 453.0956 453.2877 453.4911 453.6859 454.0395 454.4599 454.8805 455.3821 455.9005 456.5774 457.4865 458.3264 459.1891 460.0318 460.5194 460.7923 461.0988 461.3158 461.4669 461.6489 -9999 -9999 -9999 -9999 -9999 -9999 -9999 -9999 -9999 -9999 -9999 
-9999 -9999 -9999 -9999 -9999 -9999 446.7613 446.8381 446.9044 446.9532 446.9599 447.005 446.9965 447.0286 447.0469 447.0427 447.0837 447.0658 447.0191 446.9896 446.9855 446.9425 446.8922 446.8721 446.7924 446.6542 446.5216 446.2947 446.0784 445.8613 445.6862 445.5157 445.4857 445.3594 445.3032 445.4772 445.6683 445.9611 446.1115 446.3309 446.5977 446.8425 447.0313 447.2088 447.505 447.8315 448.1226 448.2945 448.5622 448.882 449.149 449.5718 450.0395 450.4815 450.7809 450.8854 451.0593 451.254 451.5372 451.848 452.2124 452.6207 452.9662 453.2058 453.4177 453.5666 453.7963 453.9734 454.2488 454.5894 454.9236 455.2907 455.8439 456.5038 457.0718 457.8684 458.4853 459.3631 460.2394 460.8692 461.27 461.562 461.6093 461.7511 461.8907 462.0585 -9999 -9999 -9999 -9999 -9999 -9999 -9999 -9999 -9999 -9999 
-9999 -9999 -9999 -9999 -9999 -9999 -9999 446.9547 447.0515 447.0881 447.125 447.1568 447.1948 447.263 447.2879 447.2394 447.3461 447.4152 447.3692 447.3598 447.3375 447.3311 447.3341 447.3231 447.2343 447.1594 447.0638 446.8428 446.7 446.4942 446.4091 446.3307 446.2535 446.2115 446.2012 446.3091 446.4851 446.6782 446.8925 447.1589 447.3856 447.5351 447.733 447.9819 448.2392 448.5787 448.7406 448.8777 449.2307 449.5327 449.9368 450.5189 451.0561 451.4765 451.7434 451.8438 451.9632 452.084 452.3053 452.5248 452.827 453.2143 453.5502 453.7126 453.8229 454.0953 454.4041 454.6879 454.914 455.1177 455.4253 455.832 456.3628 456.9427 457.4138 458.068 458.7282 459.4958 460.2485 460.968 461.3925 461.6361 461.7968 461.9457 462.0713 462.3046 -9999 -9999 -9999 -9999 -9999 -9999 -9999 -9999 -9999 -9999 
-9999 -9999 -9999 -9999 -9999 -9999 -9999 -9999 447.1483 447.2137 447.2717 447.307 447.3761 447.461 447.4978 447.517 447.5861 447.6636 447.692 447.699 447.6891 447.6796 447.6904 447.6852 447.6498 447.6122 447.5422 447.4055 447.2232 447.1307 447.0501 447.0002 446.9739 446.9525 446.9902 447.0852 447.2648 447.3941 447.5808 447.8387 448.0137 448.2366 448.4393 448.6988 448.9902 449.2821 449.4302 449.6419 449.9483 450.2654 450.6813 451.3175 451.994 452.3761 452.6273 452.6714 452.8011 452.9664 453.0786 453.3277 453.5255 453.7612 454.0049 454.1349 454.3928 454.7996 455.1371 455.2892 455.4366 455.6452 455.9936 456.4316 456.8963 457.308 457.8636 458.4234 459.0181 459.597 460.0806 460.8044 461.268 461.5782 461.8372 461.9922 462.249 462.4971 -9999 -9999 -9999 -9999 -9999 -9999 -9999 -9999 -9999 -9999 
-9999 -9999 -9999 -9999 -9999 -9999 -9999 -9999 -9999 447.374 447.4428 447.4976 447.5311 447.6143 447.674 447.7353 447.8311 447.898 447.9133 448.0045 448.0231 448.0217 447.9833 447.9673 448.0097 448.0032 447.9835 447.9176 447.7803 447.6878 447.6581 447.6149 447.6273 447.6544 447.7403 447.7935 447.9333 448.0914 448.2805 448.4892 448.6844 448.8883 449.1674 449.449 449.7341 450.0114 450.1553 450.4161 450.7367 451.0532 451.3828 451.9459 452.449 452.7963 453.0013 453.2226 453.535 453.7631 453.8589 453.9735 454.1663 454.3899 454.5958 454.9156 455.33 455.6649 455.8602 455.9641 456.1314 456.3532 456.6562 457.037 457.3756 457.8715 458.3697 458.8212 459.2537 459.6994 460.1617 460.6598 461.1505 461.5082 461.8756 462.2106 462.3619 462.6075 -9999 -9999 -9999 -9999 -9999 -9999 -9999 -9999 -9999 -9999 
-9999 -9999 -9999 -9999 -9999 -9999 -9999 -9999 -9999 -9999 447.5819 447.6386 447.683 447.7307 447.8434 447.9381 448.0415 448.1096 448.1817 448.2334 448.2673 448.3332 448.3427 448.3306 448.3111 448.3658 448.3391 448.2829 448.243 448.1984 448.19 448.2055 448.2361 448.2856 448.3957 448.4981 448.624 448.734 448.9691 449.1566 449.3046 449.5462 449.9302 450.1997 450.4647 450.6247 450.879 451.1907 451.5269 451.8414 452.1582 452.5535 452.9712 453.2378 453.4691 453.7211 454.0432 454.1841 454.2361 454.5844 455.0205 455.3507 455.6075 455.9203 456.3329 456.4137 456.5283 456.6654 456.7936 457.0267 457.3012 457.594 458.0098 458.4393 458.8618 459.1949 459.4884 459.8155 460.1414 460.5739 461.0982 461.54 461.9473 462.2573 462.445 462.5967 -9999 -9999 -9999 -9999 -9999 -9999 -9999 -9999 -9999 -9999 
-9999 -9999 -9999 -9999 -9999 -9999 -9999 -9999 -9999 -9999 447.758 447.8011 447.8372 447.8932 447.9624 448.111 448.2263 448.3297 448.4435 448.5006 448.5217 448.6247 448.6754 448.6572 448.6698 448.6897 448.6992 448.6706 448.6452 448.6689 448.6883 448.7542 448.8105 448.8825 448.9876 449.1099 449.2611 449.4071 449.6166 449.8203 450.0062 450.2684 450.6399 450.8426 451.0706 451.3215 451.6293 451.963 452.2873 452.6148 452.9138 453.1572 453.3925 453.794 454.0273 454.2144 454.2504 454.4051 454.7664 455.4207 455.9679 456.2968 456.6454 456.8231 456.9548 457.025 457.2349 457.2932 457.455 457.6573 457.883 458.203 458.555 458.9336 459.2639 459.468 459.6367 459.874 460.1434 460.5788 461.0789 461.5635 462.0226 462.3689 462.5663 462.7018 -9999 -9999 -9999 -9999 -9999 -9999 -9999 -9999 -9999 -9999 
-9999 -9999 -9999 -9999 -9999 -9999 -9999 -9999 -9999 -9999 447.9316 447.9966 448.0569 448.1279 448.2125 448.2556 448.4066 448.5208 448.7012 448.7675 448.7889 448.868 448.9218 448.9367 448.985 449.0075 449.0598 449.0444 449.0586 449.099 449.1312 449.2299 449.2842 449.363 449.4862 449.6457 449.8386 449.9615 450.0425 450.2338 450.5944 450.9179 451.2641 451.4577 451.6933 451.9313 452.3484 452.6783 452.9949 453.3539 453.6754 453.8557 453.984 454.2473 454.3835 454.5937 454.7971 455.0842 455.6469 456.3287 456.846 457.177 457.3549 457.4381 457.3196 457.5471 457.8132 457.9091 458.059 458.2055 458.4345 458.7344 459.0286 459.2802 459.4537 459.5836 459.6798 459.9175 460.1935 460.5179 460.9913 461.5891 462.0947 462.4694 462.6301 462.7202 462.6925 -9999 -9999 -9999 -9999 -9999 -9999 -9999 -9999 -9999 
-9999 -9999 -9999 -9999 -9999 -9999 -9999 -9999 -9999 -9999 -9999 448.1911 448.2592 448.3412 448.4331 448.5303 448.6742 448.8029 448.9139 448.9979 449.0403 449.1312 449.1808 449.215 449.2594 449.3045 449.3872 449.3959 449.4383 449.5424 449.6029 449.7126 449.7958 449.9033 450.0488 450.1731 450.3299 450.4357 450.6617 450.8727 451.1859 451.425 451.6583 451.8788 452.0853 452.5084 452.9477 453.2766 453.6347 454.0712 454.3685 454.5991 454.6955 454.7599 454.9726 455.371 455.7304 456.1441 456.7303 457.1904 457.5626 457.7743 457.8518 457.6999 457.8188 457.9994 458.2491 458.4044 458.4871 458.6658 458.9424 459.1326 459.2851 459.4018 459.5264 459.6389 459.8029 460.0074 460.2082 460.4304 460.8318 461.4661 461.9349 462.2667 462.4811 462.603 462.6685 462.6985 -9999 -9999 -9999 -9999 -9999 -9999 -9999 -9999 
-9999 -9999 -9999 -9999 -9999 -9999 -9999 -9999 -9999 -9999 -9999 448.3499 448.4432 448.5495 448.6728 448.7702 448.9058 449.0118 449.1959 449.2474 449.3244 449.4021 449.4399 449.4884 449.5444 449.6403 449.7188 449.7838 449.8447 449.9127 449.989 450.0834 450.1842 450.3046 450.4295 450.6365 450.8223 450.9289 451.0951 451.3734 451.7959 452.0525 452.3157 452.457 452.8112 453.1577 453.5252 453.8292 454.1938 454.6453 455.0045 455.1335 455.2895 455.6174 455.9287 456.3119 456.687 457.1068 457.4397 457.759 458.0111 458.1299 458.0929 458.187 458.2857 458.4033 458.5233 458.6609 458.7863 458.972 459.1551 459.3028 459.4467 459.5697 459.6956 459.7931 459.9138 460.0706 460.2625 460.5501 460.8357 461.2344 461.6045 461.9529 462.2589 462.4943 462.6108 462.661 462.7466 462.7932 -9999 -9999 -9999 -9999 -9999 -9999 
-9999 -9999 -9999 -9999 -9999 -9999 -9999 -9999 -9999 -9999 -9999 -9999 448.6284 448.7559 448.8969 449.0071 449.1088 449.25 449.3827 449.4501 449.5564 449.6245 449.6985 449.775 449.8629 449.9305 450.0396 450.1548 450.2632 450.3681 450.4161 450.5417 450.6614 450.7934 450.9276 451.1275 451.2567 451.3806 451.6331 451.873 452.3609 452.6763 452.9388 453.0712 453.485 453.8648 454.2253 454.5722 454.9219 455.2514 455.5735 455.8498 456.1019 456.5281 456.9031 457.241 457.4951 457.7564 457.9659 458.1675 458.3191 458.486 458.5026 458.6492 458.7323 458.7467 458.8329 458.8784 459.0176 459.1793 459.2906 459.4277 459.6176 459.7352 459.8199 459.9122 460.0026 460.1534 460.3261 460.546 460.7838 461.0779 461.3537 461.6773 462.0209 462.3669 462.5151 462.6387 462.7636 462.8578 462.9197 -9999 -9999 -9999 -9999 -9999 
-9999 -9999 -9999 -9999 -9999 -9999 -9999 -9999 -9999 -9999 -9999 -9999 -9999 448.9442 449.0876 449.2224 449.3416 449.4668 449.5976 449.6632 449.7585 449.8584 449.9606 450.07 450.1748 450.2288 450.3329 450.4825 450.6268 450.7494 450.8224 451.0119 451.137 451.2787 451.4291 451.6086 451.7892 451.9248 452.1287 452.4474 452.8634 453.23 453.5375 453.7693 454.2125 454.5932 454.9552 455.3174 455.6384 456.0278 456.3463 456.6817 457.0968 457.4494 457.7332 457.9684 458.0574 458.1652 458.3552 458.502 458.5956 458.7268 458.8791 459.0337 459.1141 459.072 459.0931 459.1066 459.1814 459.2967 459.4465 459.5658 459.7152 459.8213 459.9005 460.0074 460.109 460.2427 460.3961 460.5294 460.7222 460.9823 461.2251 461.4983 461.8131 462.1125 462.3536 462.5798 462.7383 462.8831 462.9833 462.9848 463.11 -9999 -9999 -9999 
-9999 -9999 -9999 -9999 -9999 -9999 -9999 -9999 -9999 -9999 -9999 -9999 -9999 -9999 449.2977 449.4506 449.6069 449.693 449.8185 449.8826 449.9734 450.0854 450.1978 450.3081 450.4209 450.5251 450.6648 450.8087 450.9626 451.121 451.2978 451.4736 451.5917 451.719 451.9306 452.1322 452.3077 452.4477 452.7146 452.975 453.3255 453.8707 454.2075 454.5744 454.9331 455.3206 455.7058 456.0489 456.3984 456.7617 457.0999 457.4442 457.757 458.0014 458.203 458.2998 458.4016 458.536 458.696 458.7979 458.9602 459.061 459.1909 459.2441 459.2842 459.2248 459.2413 459.2992 459.3809 459.4689 459.5865 459.6943 459.7802 459.8824 459.9863 460.1137 460.2066 460.313 460.4172 460.559 460.7025 460.9434 461.1661 461.4249 461.6782 461.9444 462.2179 462.4505 462.633 462.8166 463.0042 463.0269 463.0999 463.0385 -9999 -9999 
-9999 -9999 -9999 -9999 -9999 -9999 -9999 -9999 -9999 -9999 -9999 -9999 -9999 -9999 -9999 449.6692 449.812 449.9182 450.0014 450.0985 450.1895 450.3488 450.4608 450.5562 450.6654 450.8242 450.9695 451.1566 451.3236 451.4813 451.6417 451.8648 452.0058 452.2094 452.46 452.6666 452.8532 453.0243 453.3044 453.5711 453.9453 454.4032 454.8769 455.2753 455.6388 456.0571 456.3854 456.7531 457.0964 457.462 457.7912 458.086 458.2693 458.5021 458.57 458.6156 458.7111 458.8335 458.9944 459.1577 459.2712 459.3107 459.3549 459.3175 459.3788 459.41 459.4427 459.5127 459.5854 459.6364 459.7143 459.795 459.8813 460.002 460.0725 460.1752 460.2628 460.3603 460.4623 460.5923 460.7796 460.8972 461.1315 461.343 461.588 461.8469 462.0997 462.3094 462.4813 462.6912 462.9308 462.9387 462.8487 462.6859 -9999 -9999 
-9999 -9999 -9999 -9999 -9999 -9999 -9999 -9999 -9999 -9999 -9999 -9999 -9999 -9999 -9999 -9999 449.949 450.0673 450.2195 450.3366 450.4723 450.6326 450.7149 450.7958 450.8993 451.0284 451.2715 451.4836 451.6452 451.8683 452.0538 452.2216 452.4463 452.6985 452.9389 453.1819 453.3705 453.6194 453.9253 454.2184 454.5788 454.9517 455.493 455.9207 456.343 456.7081 457.0385 457.4214 457.7457 458.0617 458.3526 458.572 458.7167 458.8425 458.8767 458.9282 458.9971 459.1166 459.2455 459.376 459.4483 459.3939 459.4384 459.4879 459.5367 459.6044 459.6573 459.6883 459.756 459.798 459.839 459.9252 459.9653 460.0626 460.1346 460.2057 460.315 460.4422 460.5526 460.6628 460.8199 460.9723 461.1195 461.2934 461.4876 461.6906 461.8751 462.1054 462.2743 462.4478 462.6004 462.6229 462.5206 462.3075 462.1976 -9999 
-9999 -9999 -9999 -9999 -9999 -9999 -9999 -9999 -9999 -9999 -9999 -9999 -9999 -9999 -9999 -9999 -9999 450.2971 450.4694 450.64 450.7479 450.8459 450.9632 451.0652 451.1757 451.2864 451.4644 451.7765 452.0001 452.2643 452.4226 452.6353 452.8403 453.0882 453.3768 453.6319 453.884 454.1627 454.4828 454.7983 455.2107 455.7775 456.2097 456.5927 456.9775 457.3048 457.6749 458.0117 458.3506 458.5496 458.7506 458.9242 458.9882 459.1099 459.1266 459.2175 459.2658 459.3229 459.3205 459.3778 459.4659 459.5257 459.5851 459.6342 459.6886 459.743 459.8061 459.8458 459.8647 459.899 459.9605 460.0251 460.0789 460.1305 460.1904 460.2658 460.3725 460.4893 460.5898 460.7021 460.7929 460.9121 461.0601 461.2153 461.4103 461.5855 461.7564 461.8898 462.0295 462.1908 462.2745 462.2968 462.2501 462.16 462.0399 -9999 
-9999 -9999 -9999 -9999 -9999 -9999 -9999 -9999 -9999 -9999 -9999 -9999 -9999 -9999 -9999 -9999 -9999 -9999 450.764 450.8706 451.0347 451.1832 451.3019 451.3306 451.4406 451.5534 451.7252 451.9646 452.4449 452.6413 452.8462 453.0826 453.2887 453.5147 453.7375 453.9761 454.3268 454.687 455.0266 455.4566 455.892 456.398 457.2105 457.6201 457.5677 457.8888 458.189 458.4874 458.7687 458.9329 459.0606 459.1992 459.2575 459.2926 459.3169 459.3468 459.3865 459.4129 459.459 459.5072 459.6017 459.6722 459.7283 459.7816 459.8302 459.8692 459.9224 459.9452 459.9602 459.9723 460.0488 460.1042 460.1654 460.2206 460.2641 460.3396 460.4276 460.5299 460.5828 460.6881 460.801 460.8914 460.9987 461.1606 461.3235 461.4939 461.6674 461.7584 461.8713 461.9373 461.994 462.0249 462.0058 461.9589 461.9628 -9999 
-9999 -9999 -9999 -9999 -9999 -9999 -9999 -9999 -9999 -9999 -9999 -9999 -9999 -9999 -9999 -9999 -9999 -9999 -9999 451.1674 451.3444 451.487 451.603 451.7898 451.9384 452.1334 452.2996 452.491 452.7863 453.0081 453.289 453.5094 453.7111 453.9151 454.1291 454.3965 454.7186 455.1555 455.5398 455.9258 456.5809 457.1767 457.6632 458.0242 458.3214 458.5791 458.6891 458.9343 459.1288 459.2372 459.3423 459.4344 459.4691 459.4749 459.4815 459.5048 459.5283 459.5655 459.6099 459.6635 459.7474 459.8174 459.8749 459.9204 459.9537 459.9707 460.0078 460.0609 460.08 460.1018 460.137 460.1945 460.2644 460.3154 460.3513 460.4051 460.4337 460.5331 460.6119 460.7103 460.8569 460.9559 461.0726 461.1747 461.2552 461.4124 461.5752 461.6574 461.724 461.7733 461.8163 461.8525 461.8844 461.9026 461.9084 -9999 
-9999 -9999 -9999 -9999 -9999 -9999 -9999 -9999 -9999 -9999 -9999 -9999 -9999 -9999 -9999 -9999 -9999 -9999 -9999 451.5013 451.6696 451.7791 451.9435 452.1065 452.3014 452.4857 452.7075 452.9121 453.2096 453.4905 453.6561 453.9209 454.1551 454.3606 454.6059 454.9024 455.2516 455.6415 456.0335 456.4645 457.149 457.6917 458.1144 458.4614 458.7292 458.9668 459.1706 459.3045 459.4055 459.5023 459.5806 459.6302 459.6599 459.6656 459.6416 459.6786 459.7122 459.7422 459.7749 459.8267 459.9031 459.959 460.0162 460.0494 460.0813 460.0886 460.0954 460.1468 460.1999 460.2156 460.2295 460.2891 460.3369 -9999 -9999 -9999 460.4876 460.5725 460.642 460.7333 460.8836 460.983 461.1078 461.1905 461.321 461.3795 461.4923 461.5585 461.6147 461.6786 461.7312 461.7644 461.7864 461.819 461.8255 461.825 
-9999 -9999 -9999 -9999 -9999 -9999 -9999 -9999 -9999 -9999 -9999 -9999 -9999 -9999 -9999 -9999 -9999 -9999 -9999 -9999 452.039 452.1161 452.2859 452.4763 452.6877 452.8893 453.0687 453.3453 453.7233 453.909 454.0685 454.3071 454.5682 454.8402 455.11 455.4356 455.7838 456.1972 456.5947 457.1021 457.6305 458.1933 458.6006 458.8571 459.0869 459.3008 459.5028 459.5989 459.6487 459.729 459.7945 459.8387 459.8483 459.8509 459.8532 459.8766 459.9077 459.9281 459.948 460.0028 460.0604 460.1005 460.1476 460.1616 460.1997 460.1952 460.2316 460.2523 460.299 460.3358 -9999 -9999 -9999 -9999 -9999 -9999 -9999 460.612 460.6932 460.7888 460.9084 461.0109 461.1391 461.2062 461.3279 461.4255 461.5136 461.5119 461.5616 461.6123 461.6636 461.685 461.7295 461.7445 461.7539 461.7663 
-9999 -9999 -9999 -9999 -9999 -9999 -9999 -9999 -9999 -9999 -9999 -9999 -9999 -9999 -9999 -9999 -9999 -9999 -9999 -9999 452.3854 452.4717 452.6685 452.8773 453.0968 453.3101 453.474 453.6931 453.9575 454.2815 454.4771 454.7293 454.9476 455.2895 455.5947 455.9756 456.3253 456.6709 457.1046 457.595 458.1341 458.6223 459.006 459.1919 459.3885 459.5668 459.7169 459.8015 459.8537 459.9056 459.9619 460.0089 460.0239 460.0319 460.0536 460.0799 460.1005 460.1143 460.1202 460.1472 460.1938 460.2247 460.2421 460.2787 460.3034 460.332 -9999 -9999 -9999 -9999 -9999 -9999 -9999 -9999 -9999 -9999 -9999 -9999 460.7144 460.7969 460.9066 461.0099 461.159 461.2141 461.3266 461.4085 461.4679 461.5309 461.5308 461.5902 461.6166 461.6389 461.6625 461.6712 461.6916 -9999 
-9999 -9999 -9999 -9999 -9999 -9999 -9999 -9999 -9999 -9999 -9999 -9999 -9999 -9999 -9999 -9999 -9999 -9999 -9999 -9999 -9999 452.8326 453.0468 453.2611 453.517 453.7325 453.8956 453.9625 454.3582 454.6908 454.9047 455.1663 455.399 455.706 456.0226 456.4103 456.8245 457.192 457.609 458.0657 458.5586 458.9242 459.2298 459.4413 459.6102 459.7583 459.8737 459.9408 460.0129 460.0588 460.0972 460.1332 460.1671 460.1876 460.2275 460.2527 460.2646 460.2775 460.2798 460.2649 460.3137 460.3215 460.3138 460.3774 -9999 -9999 -9999 -9999 -9999 -9999 -9999 -9999 -9999 -9999 -9999 -9999 -9999 -9999 -9999 460.8009 460.8888 461.0271 461.185 461.2274 461.2965 461.3691 461.4382 461.5162 461.5139 461.5595 461.5864 461.6039 461.6626 -9999 -9999 -9999 
-9999 -9999 -9999 -9999 -9999 -9999 -9999 -9999 -9999 -9999 -9999 -9999 -9999 -9999 -9999 -9999 -9999 -9999 -9999 -9999 -9999 453.1927 453.4329 453.6583 453.8967 454.1364 454.2861 454.3741 454.6846 455.0301 455.321 455.57 455.8484 456.0952 456.4156 456.8289 457.28 457.706 458.0898 458.4869 458.8857 459.2257 459.4658 459.6703 459.8385 459.8989 459.9858 460.0628 460.1319 460.1684 460.2187 460.2515 460.2849 460.3214 460.3623 460.3904 460.3943 460.3956 460.3744 460.356 460.3508 460.3719 460.3749 -9999 -9999 -9999 -9999 -9999 -9999 -9999 -9999 -9999 -9999 -9999 -9999 -9999 -9999 -9999 -9999 -9999 -9999 460.9992 461.1441 461.1902 461.2833 461.3692 461.4327 461.4874 461.4826 461.5314 461.5562 -9999 -9999 -9999 -9999 -9999 
-9999 -9999 -9999 -9999 -9999 -9999 -9999 -9999 -9999 -9999 -9999 -9999 -9999 -9999 -9999 -9999 -9999 -9999 -9999 -9999 -9999 -9999 453.8434 454.0516 454.282 454.5058 454.7035 454.8018 455.0166 455.3279 455.7283 456.0278 456.3373 456.5565 456.8228 457.2832 457.7601 458.148 458.513 458.901 459.1991 459.4606 459.6754 459.8524 459.9805 460.0454 460.1074 460.177 460.25 460.285 460.3215 460.3599 460.3922 460.4298 460.4596 460.5166 460.4828 460.4948 460.4954 460.466 460.472 460.4539 460.4493 -9999 -9999 -9999 -9999 -9999 -9999 -9999 -9999 -9999 -9999 -9999 -9999 -9999 -9999 -9999 -9999 -9999 -9999 -9999 -9999 -9999 461.2854 461.3537 461.4065 461.4583 461.4983 -9999 -9999 -9999 -9999 -9999 -9999 -9999 
-9999 -9999 -9999 -9999 -9999 -9999 -9999 -9999 -9999 -9999 -9999 -9999 -9999 -9999 -9999 -9999 -9999 -9999 -9999 -9999 -9999 -9999 -9999 454.4065 454.6269 454.8443 455.1327 455.2379 455.3852 455.6647 456.0981 456.5091 456.8636 457.2112 457.4987 457.8452 458.239 458.621 458.9627 459.2493 459.5162 459.6542 459.8601 459.9953 460.1086 460.1898 460.2213 460.2816 460.3161 460.3742 460.4153 460.4457 460.493 460.5229 460.5149 460.5913 460.5867 460.6053 460.6083 460.5891 460.5128 460.5017 -9999 -9999 -9999 -9999 -9999 -9999 -9999 -9999 -9999 -9999 -9999 -9999 -9999 -9999 -9999 -9999 -9999 -9999 -9999 -9999 -9999 -9999 -9999 -9999 -9999 -9999 -9999 -9999 -9999 -9999 -9999 -9999 -9999 -9999 
-9999 -9999 -9999 -9999 -9999 -9999 -9999 -9999 -9999 -9999 -9999 -9999 -9999 -9999 -9999 -9999 -9999 -9999 -9999 -9999 -9999 -9999 -9999 -9999 455.0486 455.2619 455.4328 455.5573 455.8051 456.0447 456.5899 457.0627 457.4614 457.8097 458.0636 458.3668 458.7127 459.0728 459.3662 459.5521 459.7411 459.9163 460.029 460.1418 460.2327 460.304 460.3589 460.4136 460.4317 460.4995 460.5708 460.5663 460.5898 460.6273 460.6359 460.679 460.6762 460.6634 460.6574 460.6376 460.598 -9999 -9999 -9999 -9999 -9999 -9999 -9999 -9999 -9999 -9999 -9999 -9999 -9999 -9999 -9999 -9999 -9999 -9999 -9999 -9999 -9999 -9999 -9999 -9999 -9999 -9999 -9999 -9999 -9999 -9999 -9999 -9999 -9999 -9999 -9999 
-9999 -9999 -9999 -9999 -9999 -9999 -9999 -9999 -9999 -9999 -9999 -9999 -9999 -9999 -9999 -9999 -9999 -9999 -9999 -9999 -9999 -9999 -9999 -9999 -9999 455.4702 455.7315 456.001 456.3309 456.6904 457.2328 457.6818 458.0593 458.3291 458.6281 458.8798 459.1441 459.4331 459.6177 459.7883 459.9989 460.0978 460.2065 460.2868 460.3763 460.4552 460.5185 460.5483 460.5454 460.6303 460.6745 460.6808 460.7088 460.7067 460.7294 460.7383 460.7249 460.6917 460.6994 460.6815 460.6675 -9999 -9999 -9999 -9999 -9999 -9999 -9999 -9999 -9999 -9999 -9999 -9999 -9999 -9999 -9999 -9999 -9999 -9999 -9999 -9999 -9999 -9999 -9999 -9999 -9999 -9999 -9999 -9999 -9999 -9999 -9999 -9999 -9999 -9999 -9999 
-9999 -9999 -9999 -9999 -9999 -9999 -9999 -9999 -9999 -9999 -9999 -9999 -9999 -9999 -9999 -9999 -9999 -9999 -9999 -9999 -9999 -9999 -9999 -9999 -9999 -9999 456.2919 456.6289 456.9688 457.4662 457.9745 458.2765 458.5181 458.7953 459.0703 459.2859 459.5086 459.7274 459.8492 459.9755 460.1358 460.2727 460.401 460.4525 460.5172 460.5771 460.6371 460.64 460.6819 460.7418 460.759 460.7927 460.7915 460.8173 460.8194 460.8335 460.8197 460.7985 460.7822 460.7621 -9999 -9999 -9999 -9999 -9999 -9999 -9999 -9999 -9999 -9999 -9999 -9999 -9999 -9999 -9999 -9999 -9999 -9999 -9999 -9999 -9999 -9999 -9999 -9999 -9999 -9999 -9999 -9999 -9999 -9999 -9999 -9999 -9999 -9999 -9999 -9999 
-9999 -9999 -9999 -9999 -9999 -9999 -9999 -9999 -9999 -9999 -9999 -9999 -9999 -9999 -9999 -9999 -9999 -9999 -9999 -9999 -9999 -9999 -9999 -9999 -9999 -9999 -9999 457.2545 457.6978 458.124 458.5056 458.7368 458.9608 459.2272 459.3489 459.5652 459.8046 459.9669 460.0654 460.1424 460.2624 460.4122 460.4962 460.597 460.6393 460.7159 460.7595 460.7831 460.8402 460.8354 460.8332 460.8418 460.8759 460.9509 460.9464 460.9419 460.9384 460.9177 460.8539 -9999 -9999 -9999 -9999 -9999 -9999 -9999 -9999 -9999 -9999 -9999 -9999 -9999 -9999 -9999 -9999 -9999 -9999 -9999 -9999 -9999 -9999 -9999 -9999 -9999 -9999 -9999 -9999 -9999 -9999 -9999 -9999 -9999 -9999 -9999 -9999 -9999 
-9999 -9999 -9999 -9999 -9999 -9999 -9999 -9999 -9999 -9999 -9999 -9999 -9999 -9999 -9999 -9999 -9999 -9999 -9999 -9999 -9999 -9999 -9999 -9999 -9999 -9999 -9999 -9999 458.3138 458.7025 458.9705 459.1539 459.3194 459.4796 459.5774 459.7853 460.0207 460.1813 460.2315 460.2993 460.3951 460.5218 460.6151 460.7062 460.777 460.8777 460.8743 460.8856 460.8782 460.834 460.8766 460.9249 460.9451 461.0052 461.0524 461.0571 461.057 461.0573 -9999 -9999 -9999 -9999 -9999 -9999 -9999 -9999 -9999 -9999 -9999 -9999 -9999 -9999 -9999 -9999 -9999 -9999 -9999 -9999 -9999 -9999 -9999 -9999 -9999 -9999 -9999 -9999 -9999 -9999 -9999 -9999 -9999 -9999 -9999 -9999 -9999 -9999 
-9999 -9999 -9999 -9999 -9999 -9999 -9999 -9999 -9999 -9999 -9999 -9999 -9999 -9999 -9999 -9999 -9999 -9999 -9999 -9999 -9999 -9999 -9999 -9999 -9999 -9999 -9999 -9999 -9999 459.1274 459.3016 459.5239 459.5728 459.6514 459.7665 459.9454 460.1285 460.2638 460.3382 460.4168 460.5005 460.6071 460.7218 460.8108 460.8777 460.9278 460.9762 460.9529 460.9328 460.8984 460.9556 460.9924 461.0338 461.0895 461.1441 461.1658 461.1295 -9999 -9999 -9999 -9999 -9999 -9999 -9999 -9999 -9999 -9999 -9999 -9999 -9999 -9999 -9999 -9999 -9999 -9999 -9999 -9999 -9999 -9999 -9999 -9999 -9999 -9999 -9999 -9999 -9999 -9999 -9999 -9999 -9999 -9999 -9999 -9999 -9999 -9999 -9999 
-9999 -9999 -9999 -9999 -9999 -9999 -9999 -9999 -9999 -9999 -9999 -9999 -9999 -9999 -9999 -9999 -9999 -9999 -9999 -9999 -9999 -9999 -9999 -9999 -9999 -9999 -9999 -9999 -9999 459.4125 459.5029 459.6617 459.724 459.813 459.9303 460.0794 460.2188 460.3449 460.4241 460.507 460.5872 460.6941 460.804 460.9014 460.9486 460.9732 460.9986 461.0162 461.0027 460.9772 460.9817 461.0325 461.0879 461.1512 461.2285 461.2624 -9999 -9999 -9999 -9999 -9999 -9999 -9999 -9999 -9999 -9999 -9999 -9999 -9999 -9999 -9999 -9999 -9999 -9999 -9999 -9999 -9999 -9999 -9999 -9999 -9999 -9999 -9999 -9999 -9999 -9999 -9999 -9999 -9999 -9999 -9999 -9999 -9999 -9999 -9999 -9999 
-9999 -9999 -9999 -9999 -9999 -9999 -9999 -9999 -9999 -9999 -9999 -9999 -9999 -9999 -9999 -9999 -9999 -9999 -9999 -9999 -9999 -9999 -9999 -9999 -9999 -9999 -9999 -9999 -9999 -9999 459.7824 459.831 459.9031 459.9802 460.0761 460.1997 460.3362 460.4601 460.5314 460.6002 460.6707 460.7458 460.8576 460.9225 460.976 461.0148 461.0396 461.0688 461.0648 461.0688 461.0512 461.0703 461.1128 461.1827 -9999 -9999 -9999 -9999 -9999 -9999 -9999 -9999 -9999 -9999 -9999 -9999 -9999 -9999 -9999 -9999 -9999 -9999 -9999 -9999 -9999 -9999 -9999 -9999 -9999 -9999 -9999 -9999 -9999 -9999 -9999 -9999 -9999 -9999 -9999 -9999 -9999 -9999 -9999 -9999 -9999 -9999 
-9999 -9999 -9999 -9999 -9999 -9999 -9999 -9999 -9999 -9999 -9999 -9999 -9999 -9999 -9999 -9999 -9999 -9999 -9999 -9999 -9999 -9999 -9999 -9999 -9999 -9999 -9999 -9999 -9999 -9999 -9999 460.0066 460.0728 460.1311 460.209 460.3134 460.4176 460.5246 460.6109 460.6846 460.7604 460.8105 460.878 460.947 -9999 -9999 -9999 -9999 -9999 -9999 -9999 -9999 -9999 -9999 -9999 -9999 -9999 -9999 -9999 -9999 -9999 -9999 -9999 -9999 -9999 -9999 -9999 -9999 -9999 -9999 -9999 -9999 -9999 -9999 -9999 -9999 -9999 -9999 -9999 -9999 -9999 -9999 -9999 -9999 -9999 -9999 -9999 -9999 -9999 -9999 -9999 -9999 -9999 -9999 -9999 -9999 
-9999 -9999 -9999 -9999 -9999 -9999 -9999 -9999 -9999 -9999 -9999 -9999 -9999 -9999 -9999 -9999 -9999 -9999 -9999 -9999 -9999 -9999 -9999 -9999 -9999 -9999 -9999 -9999 -9999 -9999 -9999 -9999 460.1779 460.2466 460.3082 460.39 460.4899 460.5813 460.6796 460.7839 460.8336 460.8574 460.8993 460.9471 -9999 -9999 -9999 -9999 -9999 -9999 -9999 -9999 -9999 -9999 -9999 -9999 -9999 -9999 -9999 -9999 -9999 -9999 -9999 -9999 -9999 -9999 -9999 -9999 -9999 -9999 -9999 -9999 -9999 -9999 -9999 -9999 -9999 -9999 -9999 -9999 -9999 -9999 -9999 -9999 -9999 -9999 -9999 -9999 -9999 -9999 -9999 -9999 -9999 -9999 -9999 -9999 
-9999 -9999 -9999 -9999 -9999 -9999 -9999 -9999 -9999 -9999 -9999 -9999 -9999 -9999 -9999 -9999 -9999 -9999 -9999 -9999 -9999 -9999 -9999 -9999 -9999 -9999 -9999 -9999 -9999 -9999 -9999 -9999 -9999 460.2995 460.3733 460.4534 460.5387 460.6235 460.7306 460.8362 460.8727 460.8822 -9999 -9999 -9999 -9999 -9999 -9999 -9999 -9999 -9999 -9999 -9999 -9999 -9999 -9999 -9999 -9999 -9999 -9999 -9999 -9999 -9999 -9999 -9999 -9999 -9999 -9999 -9999 -9999 -9999 -9999 -9999 -9999 -9999 -9999 -9999 -9999 -9999 -9999 -9999 -9999 -9999 -9999 -9999 -9999 -9999 -9999 -9999 -9999 -9999 -9999 -9999 -9999 -9999 -9999 
-9999 -9999 -9999 -9999 -9999 -9999 -9999 -9999 -9999 -9999 -9999 -9999 -9999 -9999 -9999 -9999 -9999 -9999 -9999 -9999 -9999 -9999 -9999 -9999 -9999 -9999 -9999 -9999 -9999 -9999 -9999 -9999 -9999 -9999 460.4202 460.4959 460.5777 -9999 -9999 -9999 -9999 -9999 -9999 -9999 -9999 -9999 -9999 -9999 -9999 -9999 -9999 -9999 -9999 -9999 -9999 -9999 -9999 -9999 -9999 -9999 -9999 -9999 -9999 -9999 -9999 -9999 -9999 -9999 -9999 -9999 -9999 -9999 -9999 -9999 -9999 -9999 -9999 -9999 -9999 -9999 -9999 -9999 -9999 -9999 -9999 -9999 -9999 -9999 -9999 -9999 -9999 -9999 -9999 -9999 -9999 -9999 
